# .PCD v0.7 - Point Cloud Data file format
VERSION 0.7
FIELDS x y z intensity
SIZE 4 4 4 4
TYPE F F F F
COUNT 1 1 1 1
WIDTH 1397
HEIGHT 1
VIEWPOINT 0 0 0 1 0 0 0
POINTS 1397
DATA ascii
0.029125126 1.6854351 -0.088343091 46
0.1241418 7.1839323 1.658789 65
0.029713461 1.7194813 -0.03001814 48
0.11121663 6.4359689 1.7247701 30
0.03033537 1.7554705 0.030646427 36
0.021481548 1.2431107 -0.28703755 1
0.030160379 1.7453438 0.09148325 3
0.021302333 1.2327397 -0.23965611 1
0.030844176 1.7849144 0.15618309 2
0.022423647 1.2976288 -0.20555489 1
0.13002457 7.5243616 0.92401338 15
0.02205376 1.2762238 -0.15672398 1
0.13013907 7.5309868 1.1929692 48
0.029054113 1.6813257 -0.1471189 1
0.13022238 7.5358086 1.4650315 64
0.029435702 1.7034076 -0.089285143 48
0.12437748 7.1975713 1.6619384 62
0.029851664 1.7274789 -0.030157758 45
0.11138352 6.4456267 1.7273583 24
0.042735551 1.7612132 0.030751141 36
0.029875871 1.2312413 -0.28433815 1
0.029526899 1.2168596 -0.23660316 1
0.18346363 7.5608845 0.66168642 6
0.030427987 1.2539951 -0.19867177 1
0.18303247 7.5431156 0.92645073 15
0.030385027 1.2522247 -0.15379912 1
0.1833346 7.5555673 1.1970365 52
0.041854452 1.7249014 -0.15095374 1
0.18340014 7.5582676 1.4696109 62
0.041423813 1.707154 -0.089494482 43
0.17485893 7.2062688 1.6641879 59
0.041813899 1.7232302 -0.030087948 44
0.15623881 6.4388981 1.7258054 22
0.042832568 1.7652115 0.030820949 40
0.029592238 1.2195524 -0.28163871 1
0.19340803 7.9707122 0.41785029 36
0.029622147 1.2207849 -0.23736639 1
0.030427987 1.2539951 -0.19867177 1
0.18370663 7.5708985 0.9298631 15
0.029133029 1.2006274 -0.14746191 1
0.18352628 7.5634665 1.198288 51
0.18359064 7.5661187 1.4711374 64
0.0420052 1.731114 -0.090750545 48
0.17547347 7.2315946 1.6700367 63
0.041910917 1.7272284 -0.030157758 44
0.1563794 6.4446921 1.7273583 24
0.055029999 1.760872 0.030751141 41
0.038227275 1.2232116 -0.28253853 1
0.24830028 7.9452124 0.41659421 42
0.038021393 1.2166238 -0.23660316 1
0.23705272 7.5853081 0.66395247 34
0.039181709 1.2537521 -0.19867177 1
0.23680459 7.5773683 0.93083805 15
0.038878366 1.2440455 -0.15282416 1
0.237435 7.5975404 1.2039196 51
0.23665251 7.5725017 1.4726639 64
0.053777602 1.7207972 -0.090227187 46
0.22662443 7.2516193 1.6749855 65
0.053968124 1.7268938 -0.030157758 45
0.20160905 6.4511666 1.7294289 38
0.055342313 1.7708656 0.030925665 38
0.037375074 1.1959425 -0.2762399 1
0.24711494 7.9072828 0.41460544 38
0.039125238 1.251945 -0.24347228 1
0.23798624 7.6151791 0.66656715 36
0.03794764 1.2142638 -0.19241439 1
0.23730065 7.5932412 0.93278795 15
0.038630337 1.236109 -0.1518492 1
0.23860736 7.6350541 1.2098641 49
0.23744972 7.5980115 1.4776249 66
0.053652827 1.7168046 -0.090017848 46
0.22680704 7.2574625 1.6763352 63
0.054217979 1.7348886 -0.030297378 46
0.20179006 6.4569597 1.7309818 33
0.30321538 7.9289956 0.1385023 2
0.045425478 1.1878632 -0.27444029 1
0.30093792 7.8694406 0.41272137 40
0.045913853 1.2006341 -0.23355021 1
0.29167694 7.6272688 0.66778731 36
0.047933526 1.253448 -0.19867177 1
0.29113969 7.6132197 0.93546909 18
0.045893565 1.2001036 -0.14746191 1
0.29197934 7.6351762 1.2101771 51
0.29183805 7.6314812 1.484494 74
0.065942265 1.7243714 -0.090436533 46
0.27858478 7.2849121 1.6830838 65
0.066404782 1.7364661 -0.030332282 43
0.24693669 6.457324 1.7314994 30
0.30222198 7.9030185 0.13804853 3
0.044829734 1.1722847 -0.27084106 1
0.29964045 7.8355117 0.41094193 24
0.048164532 1.2594887 -0.24499875 1
0.29251444 7.649169 0.66970474 10
0.047933526 1.253448 -0.19867177 1
0.29258096 7.6509089 0.94010013 15
0.046196993 1.2080382 -0.14843686 1
0.29243225 7.6470199 1.2120543 49
0.29296339 7.6609087 1.4902183 70
0.066323876 1.7343504 -0.090959892 43
0.27955285 7.3102274 1.6889325 63
0.066481195 1.7384642 -0.030367186 44
0.24656758 6.4476719 1.7289113 27
0.35521895 7.8527727 0.13721082 3
0.051955935 1.1485822 -0.26544225 1
0.35388362 7.8232532 0.41041857 3
0.055536706 1.2277418 -0.23889287 1
0.054362126 1.2017756 -0.19053718 1
0.34688386 7.6685104 0.94253749 15
0.0571412 1.2632121 -0.15526155 1
0.347507 7.6822858 1.2179987 48
0.34732622 7.6782894 1.4940344 70
0.079061985 1.7478117 -0.091692597 41
0.33172542 7.333405 1.6947812 66
0.078977704 1.7459484 -0.030506806 46
0.29148716 6.4438634 1.7283936 22
0.35377312 7.8208103 0.13665234 3
0.051955935 1.1485822 -0.26544225 1
0.055181839 1.2198968 -0.23736639 1
0.053826537 1.1899353 -0.18865997 1
0.34796029 7.692307 0.94546235 15
0.0571412 1.2632121 -0.15526155 1
0.3487567 7.7099128 1.222379 54
0.34785852 7.6900568 1.4963242 70
0.078430213 1.7338451 -0.090959892 43
0.33304635 7.3626065 1.7015297 63
0.078977704 1.7459484 -0.030506806 48
0.29209822 6.4573727 1.732017 24
0.40501288 7.8063097 0.13644291 1
0.058966599 1.1365356 -0.26274282 1
0.064491898 1.2430314 -0.2419458 1
0.060898446 1.1737704 -0.18615702 1
0.40020382 7.7136192 0.94838721 36
0.062637918 1.2072974 -0.14843686 1
0.40029213 7.7153211 1.2236304 48
0.39854771 7.6816988 1.4951793 45
0.090341635 1.7412652 -0.091378577 48
0.38247514 7.3719125 1.7042292 60
0.091487944 1.7633593 -0.030820949 49
0.33541888 6.4649396 1.7346052 30
0.40231901 7.7543874 0.13553539 2
0.058764659 1.1326433 -0.26184303 1
0.39799991 7.6711407 0.40256816 2
0.062864341 1.2116615 -0.23583992 1
0.40126204 7.7340155 0.67754877 12
0.060693745 1.169825 -0.18553127 1
0.39927816 7.6957774 0.94619358 18
0.060375135 1.163684 -0.1430746 1
0.39834747 7.6778393 1.2176858 45
0.39692014 7.6503286 1.4890734 47
0.090134665 1.737276 -0.091169238 38
0.3832829 7.3874812 1.7078284 60
0.09096989 1.7533742 -0.030646427 44
0.33571917 6.4707274 1.7361581 27
0.45489344 7.6793671 0.13427882 5
0.067526646 1.1399635 -0.26364264 1
0.45658317 7.7078924 0.40466163 1
0.073137611 1.234686 -0.24041933 1
0.45499867 7.6811438 0.67319095 2
0.071837083 1.2127309 -0.19241439 1
0.45380178 7.6609378 0.94229376 13
0.074772827 1.2622911 -0.15526155 1
0.45286563 7.645134 1.2129928 42
0.45182791 7.6276155 1.4852573 56
0.1012136 1.708656 -0.089703828 5
0.43846229 7.4019814 1.7118775 59
0.38268569 6.4603786 1.7340876 33
0.45335624 7.6534166 0.13382505 16
0.067987584 1.1477448 -0.26544225 1
0.086568922 1.4614291 0.076724514 4
0.072905429 1.2307663 -0.23965611 1
0.086946927 1.4678104 0.12864187 5
0.074173249 1.2521693 -0.19867177 1
0.45121938 7.6173425 0.93693149 11
0.068903685 1.1632102 -0.1430746 1
0.45146394 7.6214714 1.2092384 40
0.44834515 7.568821 1.4738086 45
0.43938413 7.4175439 1.7154768 59
0.38234299 6.4545932 1.7325346 35
0.073804304 1.1200453 -0.25914362 1
0.095996872 1.4568369 0.076515168 4
0.080808342 1.2263377 -0.23889287 1
0.096679829 1.4672015 0.12864187 3
0.077021137 1.1688635 -0.18553127 1
0.49885771 7.5706048 0.93156928 11
0.081837721 1.2419595 -0.15282416 1
0.49914372 7.574945 1.2023553 42
0.49672604 7.5382547 1.468466 45
0.096390836 1.4628158 -0.07682918 1
0.49100366 7.4514127 1.7240249 60
0.50699788 7.6941395 -0.13459297 0
0.42603192 6.4654093 1.7361581 30
0.50147563 7.6103339 0.13312696 0
0.0745731 1.1317124 -0.26184303 1
0.082357384 1.2498457 -0.24347228 1
0.49859545 7.5666246 0.6634295 2
0.077021137 1.1688635 -0.18553127 1
0.49585569 7.5250463 0.92596328 9
0.077661 1.178574 -0.14502452 1
0.49732533 7.5473495 1.1979752 42
0.49530607 7.516706 1.4642682 44
0.09468364 1.4369076 -0.075468451 1
0.49177244 7.4630799 1.7267243 62
0.42565084 6.4596262 1.7346052 30
0.082669489 1.1311499 -0.26184303 1
0.54898345 7.5116296 0.39471778 4
0.088436872 1.2100638 -0.23583992 1
0.55025899 7.5290823 0.66046619 8
0.084231421 1.1525215 -0.18302833 1
0.54896718 7.5114064 0.92474461 9
0.083488151 1.1423515 -0.14063722 1
0.5485841 7.5061655 1.1920307 34
0.54736412 7.4894729 1.4596888 47
0.10554574 1.4441611 -0.075887136 1
0.54729474 7.488523 1.7334728 66
0.55242252 7.5586858 -0.13228925 42
0.47256774 6.4660482 1.7371935 27
0.081817225 1.1194885 -0.25914362 1
0.54709095 7.4857345 0.39335704 6
0.085574836 1.1709032 -0.22820756 1
0.54822588 7.5012631 0.65802586 8
0.084231421 1.1525215 -0.18302833 1
0.54723084 7.4876485 0.92181969 9
0.084935091 1.1621495 -0.1430746 1
0.5478642 7.4963145 1.1904663 40
0.54865205 7.5070949 1.4631233 53
0.10554574 1.4441611 -0.075887136 6
0.54871517 7.5079584 1.7379719 57
0.54848707 7.5048375 -0.13134681 17
0.47284934 6.469902 1.7382287 22
0.59971714 7.5029235 0.13138172 36
0.090056464 1.1266758 -0.26094323 1
0.59771335 7.4778552 0.39314771 11
0.088850096 1.1115832 -0.21675903 1
0.60006595 7.507288 0.6588974 10
0.092074372 1.1519214 -0.18302833 1
0.59929174 7.497602 0.92352587 13
0.094108887 1.1773748 -0.14502452 1
0.59997863 7.5061955 1.1926564 46
0.60036385 7.5110145 1.4646498 53
0.11362283 1.4215091 -0.074735746 8
0.60213619 7.5331879 1.7447203 44
0.59987646 7.5049171 -0.13141662 7
0.51626158 6.4588308 1.7361581 22
0.6008324 7.5168772 0.13162605 33
0.088814311 1.1111355 -0.25734401 1
0.6001004 7.5077186 0.39471778 5
0.09072721 1.1350673 -0.22133844 1
0.60101849 7.5192046 0.65994328 12
0.089241318 1.1164777 -0.17739668 1
0.60087341 7.5173898 0.92596328 11
0.09505789 1.1892475 -0.14648695 1
0.60186738 7.5298247 1.1964108 36
0.62460989 7.8143516 1.5238006 29
0.11298629 1.4135456 -0.07431706 11
0.6033783 7.548728 1.7483196 37
0.51595372 6.4549794 1.7351229 24
0.65502745 7.5324211 0.1319751 30
0.095556304 1.0988399 -0.2546446 1
0.65630579 7.547121 0.39702058 1
0.098309025 1.1304946 -0.2205752 1
0.095664479 1.1000838 -0.17489374 1
0.74397135 8.5552216 1.0544136 2
0.10095035 1.160868 -0.1430746 1
0.74460852 8.5625486 1.3612927 35
0.68646234 7.8939033 1.5402102 36
0.12267883 1.4107326 -0.074212387 16
0.65589446 7.5423903 1.7478697 30
0.1245609 1.4323752 -0.02509656 1
0.56251132 6.4685411 1.7397816 27
0.095556304 1.0988399 -0.2546446 1
0.13392583 1.5400664 0.081016064 1
0.10511242 1.2087295 -0.23583992 1
0.74705136 8.5906401 0.7544201 4
0.098060369 1.1276351 -0.1792739 1
0.74517518 8.5690651 1.0561197 2
0.097510807 1.1213155 -0.13819984 1
0.74683326 8.5881319 1.36536 35
0.68646234 7.8939033 1.5402102 33
0.12112156 1.3928249 -0.073270336 22
0.65724504 7.5579219 1.7514689 20
0.12040309 1.384563 -0.024258845 7
0.56234396 6.4666166 1.739264 27
0.75297195 7.995399 0.14017773 2
0.10414778 1.1058886 -0.25644422 1
0.73557532 7.8106732 0.41115126 1
0.10823686 1.1493082 -0.22439139 1
0.80850506 8.5850744 0.7544201 4
0.10464527 1.1111711 -0.17677094 1
0.810197 8.6030407 1.0609945 2
0.1077657 1.1443052 -0.1411247 1
0.80993593 8.6002684 1.3681759 32
0.74403632 7.9005165 1.5424999 33
0.13127248 1.3939109 -0.073375009 17
0.71039754 7.5433245 1.7492194 19
0.13012016 1.381675 -0.02422394 27
0.60842216 6.4605036 1.7387463 27
0.74209738 7.8799276 0.13815325 0
0.10378236 1.1020083 -0.25554439 1
0.73707342 7.826581 0.41198865 1
0.10455533 1.110216 -0.21675903 1
0.81186759 8.62078 0.75755769 4
0.10649741 1.1308379 -0.17989963 1
0.81280273 8.6307096 1.0644069 2
0.10925469 1.160116 -0.1430746 1
0.81326973 8.6356688 1.3738074 30
0.74403632 7.9005165 1.5424999 31
0.13127248 1.3939109 -0.073375009 23
0.70930123 7.5316834 1.74652 17
0.13087013 1.3896385 -0.024363559 51
0.60932785 6.4701204 1.7413346 27
0.79330426 7.8508191 0.1377344 0
0.11284836 1.1167873 -0.25914362 1
0.79876316 7.9048429 0.41638488 1
0.10934658 1.0821323 -0.21141636 1
0.87253118 8.6348763 0.75930083 4
0.11260349 1.1143639 -0.17739668 1
0.87392569 8.6486778 1.0673317 2
0.11515303 1.139595 -0.14063722 1
0.87501055 8.6594133 1.3785005 34
0.79740101 7.8913622 1.5417367 33
0.13975343 1.3830494 -0.07285165 53
0.76446933 7.5654583 1.7555181 12
0.13710935 1.3568826 -0.023805082 41
0.65238303 6.4562125 1.7387463 24
0.79853129 7.9025478 0.13864192 0
0.11010552 1.0896431 -0.25284499 1
0.16545522 1.6374032 0.086249657 1
0.11803114 1.1680779 -0.22820756 1
0.87854034 8.6943455 0.76453018 2
0.1161782 1.1497406 -0.18302833 1
0.87671971 8.6763277 1.070744 2
0.11275817 1.1158947 -0.13771236 1
0.87739366 8.6829977 1.382255 32
0.79779577 7.8952689 1.5424999 30
0.13814707 1.3671522 -0.072014272 48
0.7623142 7.5441308 1.7505691 11
0.13871767 1.372799 -0.02408432 41
0.65315986 6.463901 1.740817 27
0.86055917 7.9604001 0.13975887 0
0.11770992 1.0888479 -0.25284499 1
0.16915447 1.5647235 0.082481466 1
0.11985268 1.1086689 -0.21675903 1
0.94735372 8.7632723 0.77115399 2
0.11953116 1.1056949 -0.17614521 1
0.93833685 8.6798639 1.0719627 4
0.12054577 1.1150802 -0.13771236 1
0.94117522 8.7061195 1.386948 32
0.85479432 7.907074 1.5459344 29
0.14768815 1.3661546 -0.072014272 45
0.81307817 7.5211878 1.74652 16
0.14679369 1.3578805 -0.023839988 37
0.70013881 6.4764695 1.7454756 30
0.86421293 7.9941978 0.14035225 0
0.11854772 1.0965977 -0.2546446 1
0.17344771 1.6044372 0.084574908 1
0.11985268 1.1086689 -0.21675903 1
0.11868192 1.0978391 -0.17489374 1
0.94217724 8.7153883 1.0763501 9
0.12097248 1.1190275 -0.13819984 1
0.94393528 8.7316513 1.3910153 31
0.85521638 7.9109778 1.5466977 29
0.1491908 1.3800544 -0.072746977 52
0.81412536 7.5308752 1.7487695 24
0.14829816 1.3717972 -0.02408432 36
0.69951594 6.4707074 1.7439227 27
0.12683831 1.0995932 -0.25554439 1
0.13138252 1.1389881 -0.22286491 1
1.015517 8.803772 0.77533752 2
0.12834565 1.1126606 -0.17739668 1
1.0083857 8.7419472 1.0804936 9
0.13034174 1.1299653 -0.13966227 1
1.0097883 8.7541084 1.3957083 35
0.91157877 7.9027052 1.5463161 31
0.15906236 1.3789514 -0.072746977 39
0.86955702 7.5384078 1.7519188 29
0.15902723 1.378647 -0.02422394 36
0.74624377 6.4693747 1.744958 27
0.9195624 7.9719172 0.14007302 5
0.12594509 1.0918496 -0.25374478 1
0.18126242 1.5714093 0.082900152 1
0.13183247 1.1428888 -0.22362815 1
1.0114075 8.7681446 0.77219987 4
0.13015653 1.1283596 -0.17989963 1
1.0104328 8.759696 1.0826873 9
0.13034174 1.1299653 -0.13966227 1
1.0145419 8.7953176 1.4022785 31
0.91112882 7.8988042 1.5455528 30
0.15929122 1.3809355 -0.07285165 31
0.86978036 7.5403438 1.7523687 28
0.16017297 1.3885796 -0.024398465 37
0.74668652 6.4732127 1.7459933 27
0.13261724 1.0832065 -0.25194517 1
0.18737417 1.5304565 0.080806717 1
0.13121916 1.0717872 -0.20988989 1
1.0793749 8.8162432 0.7770806 2
0.13515009 1.1038946 -0.17614521 1
1.0737331 8.7701616 1.0848809 9
0.13629727 1.1132647 -0.13771236 1
1.0792803 8.8154707 1.4066588 33
0.96768171 7.9039431 1.5478426 31
0.16771445 1.3698776 -0.072328292 26
0.92168981 7.528285 1.751019 31
0.17107815 1.397352 -0.024572989 37
0.79209429 6.4697595 1.7465109 30
1.0169915 8.3067017 0.14607663 34
0.1335645 1.0909437 -0.25374478 1
0.18931587 1.5463161 0.081644088 2
0.13360497 1.0912743 -0.21370608 1
0.19563368 1.5979195 0.14084367 1
0.13418987 1.0960517 -0.17489374 1
1.0775928 8.8016872 1.0887808 9
0.13967456 1.1408501 -0.1411247 1
1.0821609 8.8389997 1.4104131 35
0.96863604 7.9117379 1.5493691 36
0.1686853 1.3778074 -0.072746977 22
0.92216343 7.5321536 1.7519188 30
0.17083514 1.395367 -0.024538083 36
0.79279858 6.4755125 1.7480638 24
0.14117742 1.0899847 -0.25374478 1
0.19600175 1.5132654 0.079969339 5
0.13768968 1.0630571 -0.20836343 1
0.20013045 1.5451417 0.13631158 3
0.14386831 1.1107602 -0.17739668 1
1.1441131 8.8333235 1.0936555 9
0.14457591 1.1162233 -0.13819984 1
1.146633 8.8527784 1.4138547 33
1.026116 7.9223061 1.5528036 37
0.17830002 1.3765962 -0.072746977 16
0.97472489 7.5255322 1.7519188 29
0.17928809 1.3842248 -0.024363559 36
0.83897907 6.4774833 1.7501343 22
0.14067678 1.0861194 -0.25284499 1
1.1416333 8.8141766 0.46579 6
0.14122018 1.0903149 -0.21370608 1
1.1618826 8.9705162 0.79137415 2
0.14285338 1.1029242 -0.17614521 1
1.1474279 8.8589153 1.096824 4
0.14610581 1.1280353 -0.13966227 1
1.150439 8.882164 1.4185477 35
1.024855 7.912571 1.5508956 33
0.18060894 1.3944225 -0.073689029 12
0.97472489 7.5255322 1.7519188 31
0.18108611 1.3981067 -0.024607893 36
0.83624947 6.456409 1.7444403 24
0.13850927 1.0164192 -0.27486584 1
0.14524579 1.0658536 -0.24834597 2
1.197908 8.7905798 0.46495265 3
0.14685775 1.0776826 -0.21141636 1
1.2111286 8.8875952 0.78475028 6
0.15016505 1.1019526 -0.17614521 1
1.2048166 8.8412762 1.0956054 2
0.15519217 1.1388429 -0.1411247 1
1.2127894 8.8997831 1.4226151 40
1.0778404 7.9094906 1.5516587 33
0.18877435 1.3852782 -0.073270336 13
1.026193 7.5304875 1.7546182 30
0.19116467 1.402819 -0.024712607 37
0.88139892 6.467948 1.7490991 27
0.13850927 1.0164192 -0.27486584 1
1.146448 8.4129515 0.14820583 49
0.14629829 1.0735772 -0.25014558 1
0.14844827 1.0893543 -0.21370608 1
0.14803126 1.0862942 -0.17364226 1
1.2120535 8.8943825 1.1021863 11
0.15519217 1.1388429 -0.1411247 1
1.218924 8.9448013 1.429811 56
1.0773103 7.9056001 1.5508956 14
0.18877435 1.3852782 -0.073270336 11
1.0264562 7.5324183 1.7550682 31
0.19413474 1.4246143 -0.02509656 40
0.88113809 6.4660339 1.7485814 22
0.14889221 1.0383749 -0.28107747 1
1.2102621 8.4403734 0.14883412 52
0.15102366 1.0532396 -0.24564655 2
1.1742022 8.1888914 0.43355107 1
0.15326312 1.0688577 -0.20988989 1
1.278236 8.914423 0.78788793 40
0.15448983 1.0774128 -0.17239077 1
1.2743998 8.8876696 1.1024301 15
0.15863079 1.1062918 -0.13722488 1
1.2760131 8.898921 1.4238665 42
0.18890744 1.3174413 -0.11644007 1
1.1349831 7.9153767 1.5543301 28
0.1992912 1.3898576 -0.073584355 5
1.0795702 7.5289268 1.755968 30
0.20379178 1.4212449 -0.025061656 49
0.9284513 6.4750233 1.7527226 24
0.14560178 1.0154275 -0.27486584 1
1.2150873 8.4740238 0.1494275 57
0.15268324 1.0648136 -0.24834597 2
1.1702334 8.1612129 0.43208566 1
0.16050828 1.1193855 -0.21981196 1
1.2737113 8.8828678 0.78509891 36
0.15392907 1.0735021 -0.17176504 1
1.2701733 8.8581944 1.098774 13
0.15863079 1.1062918 -0.13722488 1
1.2695644 8.8539476 1.4166706 38
0.18890744 1.3174413 -0.11644007 1
1.1388843 7.942584 1.5596727 45
0.19985817 1.3938117 -0.073793702 1
1.0787404 7.52314 1.7546182 29
0.20095347 1.4014503 -0.024712607 37
0.92653185 6.461637 1.7490991 24
0.15477055 1.0257943 -0.27797166 1
1.2813486 8.4925718 0.14991617 68
0.15990311 1.0598119 -0.24744616 2
1.2294303 8.1484652 0.4318763 2
0.16050826 1.0638229 -0.20912667 1
1.3340354 8.8417711 0.78230995 33
0.1641517 1.087971 -0.17426799 1
1.3297418 8.8133144 1.0943867 11
0.16555138 1.0972478 -0.13624993 1
1.3314855 8.8248711 1.4135418 42
0.19499269 1.2923801 -0.11434834 1
1.1961967 7.9281983 1.5585278 49
0.21394351 1.4179831 -0.075154431 1
1.1338583 7.5150304 1.7546182 30
0.21330948 1.4137808 -0.024956942 37
0.97387284 6.4546719 1.7490991 22
0.15477055 1.0257943 -0.27797166 1
1.2768736 8.4629116 0.1493926 61
0.16222897 1.0752274 -0.25104538 1
0.1710526 1.1337091 -0.22286491 1
1.3304684 8.8181305 0.78021818 33
0.16238347 1.0762514 -0.17239077 1
1.3267802 8.793685 1.0919493 11
0.16851294 1.1168766 -0.13868731 1
1.3261807 8.789712 1.4079102 35
0.18607534 1.2332773 -0.10911899 1
1.200883 7.959259 1.5646337 49
0.21453945 1.4219329 -0.075363778 7
1.1356027 7.5265918 1.7573177 33
0.21599449 1.4315766 -0.025271084 37
0.9753139 6.4642229 1.7516873 22
0.15813476 1.0018183 -0.27175999 1
1.3307073 8.4303217 0.14897375 50
0.16650558 1.0548491 -0.24654636 2
0.16652128 1.0549487 -0.20760019 1
1.3861111 8.7813177 0.77777785 33
0.16477753 1.0439017 -0.16738488 1
1.3797965 8.741313 1.0865871 11
0.17734936 1.123547 -0.13966227 1
1.3819753 8.7551155 1.4038429 35
0.20751284 1.3146392 -0.11644007 1
1.2620722 7.9955029 1.573411 50
0.21954209 1.3908471 -0.073793702 5
1.1871119 7.5206127 1.7577676 29
0.226981 1.4379742 -0.025410704 37
1.0198939 6.4612508 1.7527226 22
0.1623517 1.0285335 -0.27900693 1
1.3266541 8.4046431 0.14851998 62
0.16589789 1.0509994 -0.24564655 2
0.16590907 1.0510702 -0.20683695 1
1.3802088 8.7439251 0.77446592 36
0.17093743 1.082926 -0.17364226 1
1.3736063 8.702096 1.0817122 11
0.16992112 1.0764873 -0.13381253 1
1.3764313 8.7199936 1.3982112 35
0.21496838 1.3618717 -0.12062355 1
1.2675821 8.0304098 1.5802801 50
0.22234476 1.4086026 -0.074735746 7
1.1846811 7.5052133 1.7541683 28
0.22604564 1.4320486 -0.02530599 43
1.0204964 6.4650674 1.7537578 24
0.16701201 1.0121263 -0.27486584 1
1.3820411 8.3754463 0.14817093 57
0.17386569 1.0536611 -0.24654636 2
1.4281576 8.6549225 0.45971903 4
0.17579992 1.0653828 -0.20988989 1
1.4344069 8.6927938 0.77080542 36
0.17913668 1.0856043 -0.17426799 1
1.4314157 8.6746674 1.0795187 13
0.1851888 1.1222814 -0.13966227 1
1.4324502 8.6809368 1.3935182 43
0.22706577 1.3760642 -0.12201804 1
1.329367 8.0562315 1.5871493 69
0.23217316 1.407016 -0.074735746 1
1.2386343 7.5063734 1.7564179 29
0.23440979 1.4205705 -0.025131466 37
1.0649768 6.4539733 1.7527226 22
0.16701201 1.0121263 -0.27486584 1
1.3752041 8.334013 0.14743793 26
0.1725966 1.0459701 -0.24474674 2
0.1738821 1.0537605 -0.20760019 1
1.4279193 8.6534777 0.76731914 36
0.17399092 1.05442 -0.1692621 1
1.4278606 8.6531229 1.0768375 13
0.1851888 1.1222814 -0.13966227 1
1.4282693 8.6555996 1.3894509 37
0.2329046 1.4114487 -0.12515564 1
1.3306456 8.0639801 1.5886757 76
0.23282351 1.4109573 -0.074945092 1
1.2389517 7.5082965 1.7568678 27
0.23668878 1.4343816 -0.025375798 37
1.0637187 6.4463491 1.7506521 13
0.17389742 1.0109661 -0.27486584 1
1.4288487 8.3067226 0.14712378 56
0.18235506 1.0601354 -0.24834597 2
1.4853433 8.6351585 0.45919567 36
0.18437888 1.071901 -0.21141636 1
1.482735 8.6199951 0.76522744 36
0.17915483 1.0415305 -0.16738488 1
1.4799967 8.6040754 1.0719627 13
0.18743932 1.0896931 -0.13576245 1
1.4831342 8.6223154 1.3856965 42
0.23304948 1.3548512 -0.12027492 1
1.3894979 8.0779533 1.5932552 83
0.2427607 1.4113082 -0.075049758 1
1.291021 7.5054507 1.7582175 30
0.24814169 1.4425911 -0.025550323 37
1.1128124 6.4694214 1.7589343 8
0.17062251 0.99192721 -0.26968944 1
1.4786805 8.5964231 0.15225479 52
0.18103366 1.0524532 -0.24654636 2
1.4799261 8.6036654 0.45752093 43
0.18304762 1.0641615 -0.20988989 1
1.4793576 8.6003599 0.7634843 33
0.17647588 1.0259563 -0.16488193 1
1.4746125 8.5727739 1.0680629 11
0.18811236 1.0936059 -0.13624993 1
1.4791157 8.5989542 1.381942 35
0.23710251 1.3784139 -0.12236666 1
1.3971525 8.1224546 1.6020323 81
0.23903634 1.3896563 -0.073898368 1
1.291021 7.5054507 1.7582175 29
0.25017565 1.4544156 -0.025759751 36
1.1095375 6.4503827 1.7537578 11
0.17941299 1.0021526 -0.27279526 1
1.5385693 8.5940332 0.15239441 52
0.18613271 1.0396872 -0.24384694 2
1.5328232 8.5619364 0.45584619 40
0.18613513 1.0397006 -0.20531048 1
1.5350547 8.5744019 0.76208979 33
0.19041745 1.0636204 -0.1711393 1
1.528733 8.5390902 1.0651381 11
0.19695118 1.1001161 -0.13722488 1
1.5303018 8.5478535 1.3753718 35
0.24577729 1.3728456 -0.12201804 1
1.460019 8.1552725 1.610428 81
0.25024965 1.397827 -0.074421726 1
1.3403616 7.4868979 1.755968 28
0.26077446 1.4566158 -0.025829561 35
1.1585245 6.4712052 1.7615224 16
0.17941299 1.0021526 -0.27279526 1
1.5350454 8.5743494 0.15204537 51
0.18681955 1.0435236 -0.24474674 2
1.5285995 8.5383444 0.45459011 41
0.18267536 1.0203753 -0.20149431 1
1.5273303 8.5312548 0.75825495 36
0.18624011 1.0402869 -0.16738488 1
1.5227859 8.5058718 1.0609945 11
0.19485223 1.088392 -0.13576245 1
1.5233396 8.5089636 1.3691144 35
0.24437284 1.3650008 -0.12132079 1
1.4652086 8.1842604 1.6161522 74
0.25165755 1.405691 -0.074840419 1
1.3417352 7.4945712 1.7577676 27
0.26006967 1.4526789 -0.025759751 35
1.1721421 6.5472698 1.782228 51
0.18516342 0.9932465 -0.27072471 1
1.5897658 8.5277605 0.15141708 52
0.19571054 1.0498229 -0.24654636 2
1.5852667 8.5036268 0.45333406 42
0.1885331 1.011322 -0.19996783 1
1.5835923 8.4946451 0.7559889 36
0.19367941 1.0389277 -0.16738488 1
1.5796114 8.4732904 1.0583134 11
0.20118035 1.0791639 -0.1347875 1
1.5831028 8.4920197 1.3681759 40
0.25267372 1.3553826 -0.12062355 1
1.5276937 8.1947956 1.62035 76
0.26354006 1.4136715 -0.075363778 1
1.3971162 7.4943566 1.760017 29
0.27119103 1.4547124 -0.025829561 35
1.2207333 6.5482101 1.7848161 51
1.5278316 8.1955357 0.14551817 63
0.194282 1.04216 -0.24474674 2
1.5812403 8.482029 0.45218265 43
0.19213106 1.030622 -0.203784 1
1.5766547 8.4574308 0.75267702 34
0.19150729 1.027276 -0.16550766 1
1.5737907 8.4420671 1.0544136 11
0.20627353 1.1064845 -0.13819984 1
1.5765866 8.4570646 1.3625442 42
0.25267372 1.3553826 -0.12062355 1
1.5312917 8.2140961 1.6241661 74
0.26244196 1.4077811 -0.075049758 1
1.3974733 7.4962726 1.7604669 32
0.27448928 1.4724048 -0.026143705 34
1.2136524 6.5102277 1.7744634 30
0.21927254 1.1322792 -0.30902994 1
1.5815878 8.1670008 0.14520402 36
0.20155285 1.0407783 -0.24474674 2
1.6316833 8.425684 0.44977522 42
0.20380054 1.052385 -0.20836343 1
1.6337658 8.4364376 0.75180542 34
0.2009277 1.0375502 -0.16738488 1
1.6251403 8.3918972 1.0495387 11
0.21248351 1.097222 -0.13722488 1
1.6310823 8.4225798 1.3587898 40
0.26591784 1.3731461 -0.12236666 1
1.5930783 8.2263346 1.6287456 76
0.27074477 1.3980713 -0.074631073 1
1.4497727 7.4863338 1.7604669 28
0.28666279 1.4802688 -0.02631823 35
1.2623781 6.5186658 1.7791221 48
0.22368002 1.1550385 -0.31524161 1
1.5785463 8.1512947 0.14492479 34
0.21785493 1.1249589 -0.26454243 1
1.6240889 8.386467 0.44768175 41
0.21873099 1.1294827 -0.22362815 1
1.6299778 8.4168768 0.75006235 34
0.20468336 1.0569437 -0.17051357 1
1.6217436 8.3743572 1.0473452 9
0.20795456 1.0738354 -0.13430002 1
1.6246977 8.3896112 1.353471 43
0.26743305 1.3809702 -0.12306391 1
1.6009167 8.2668114 1.6367595 87
0.27378258 1.4137579 -0.075468451 1
1.4494022 7.4844203 1.760017 30
0.28476185 1.4704527 -0.026143705 33
1.2594397 6.5034928 1.774981 43
0.2302161 1.1458728 -0.31317106 1
1.6283242 8.1047869 0.1442965 38
0.26715896 1.3297513 -0.31313187 1
1.6806303 8.3651342 0.4471584 40
0.21114255 1.0509365 -0.20836343 1
1.681242 8.3681784 0.74675041 34
0.21050079 1.0477422 -0.1692621 1
1.6750845 8.3375301 1.0441766 9
0.22013833 1.0957118 -0.13722488 1
1.6773918 8.3490143 1.348778 37
0.27628255 1.3751628 -0.12271529 1
1.669805 8.3112526 1.6478264 95
0.28679296 1.4274772 -0.076305822 1
1.5023853 7.4779406 1.7609168 29
0.29620218 1.4743104 -0.02624842 30
1.3093779 6.5172696 1.7811927 74
0.23135768 1.1515548 -0.31472397 1
1.6243854 8.0851812 0.14394745 37
0.26485586 1.318288 -0.31043246 1
1.6759095 8.3416367 0.44590235 39
1.6737856 8.3310652 0.74343848 34
0.21283537 1.0593623 -0.1711393 1
1.6731294 8.3277988 1.0429578 9
0.21231814 1.0567878 -0.1323501 1
1.6727226 8.3257742 1.3450235 42
0.27745989 1.3810229 -0.12323822 1
1.6694183 8.3093271 1.6474448 87
0.28757977 1.4313935 -0.076515168 1
1.5043045 7.4874935 1.7631663 32
0.29698995 1.4782314 -0.02631823 29
1.3093779 6.5172696 1.7811927 74
0.23919064 1.1499534 -0.31472397 1
1.6753092 8.0543594 0.14359841 36
0.27421978 1.3183625 -0.31088236 1
1.6846564 8.0992975 0.43355107 33
0.28305879 1.3608576 -0.27018553 1
1.725991 8.2980213 0.74152106 59
0.215214 1.0346812 -0.16738488 1
1.725329 8.2948389 1.0402768 13
0.22112347 1.0630921 -0.13332506 1
1.7269416 8.3025913 1.3431463 50
0.28847665 1.386905 -0.12393547 1
1.7243398 8.2900829 1.6459184 51
0.30301037 1.4567785 -0.077980578 1
1.5568223 7.4847121 1.764966 31
1.3529221 6.5044236 1.7801574 83
0.23840383 1.1461706 -0.3136887 1
1.6712369 8.0347815 0.14324935 36
1.6692008 8.024992 0.42957354 27
0.2870568 1.3800788 -0.27400172 1
1.6951553 8.1497736 0.72827339 23
0.225673 1.0849648 -0.17551947 1
1.7277546 8.3065004 1.0417391 9
0.22031498 1.0592052 -0.13283758 1
1.7345847 8.3393373 1.3490908 34
0.29212824 1.4044607 -0.12550427 1
1.733935 8.3362141 1.6550772 48
0.305044 1.4665556 -0.078503937 1
1.5564255 7.4828043 1.7645161 31
1.6716441 8.0367393 -0.14328426 24
1.3501682 6.4911838 1.776534 77
0.24761954 1.150144 -0.31524161 1
1.723922 8.0072794 0.14297011 37
0.28136617 1.3068905 -0.30863285 9
1.7377957 8.0717192 0.43271369 34
0.28965992 1.3454134 -0.2675142 1
1.7465582 8.1124191 0.72600734 23
0.29227999 1.357583 -0.21994686 1
1.7932228 8.3291674 1.0461265 9
0.22937542 1.0654037 -0.13381253 1
1.7973348 8.3482666 1.3525324 32
0.30653879 1.4238124 -0.12742169 1
1.7962221 8.3430986 1.6588933 45
0.31527498 1.4643903 -0.078503937 21
1.608627 7.471756 1.7645161 30
1.7197132 7.98773 -0.14262107 42
1.3934189 6.472157 1.7739457 60
0.24436674 1.1350354 -0.31110048 1
1.7213968 7.9955497 0.14276068 35
0.28505757 1.3240364 -0.31268197 11
1.7462029 8.1107693 0.43480712 34
0.28594103 1.3281399 -0.26407966 12
1.7528483 8.1416359 0.72862202 27
0.30475283 1.4155169 -0.22933292 1
1.8011611 8.3660393 1.0507575 9
1.8023239 8.3714399 1.3562868 32
0.30989352 1.4393945 -0.12881619 1
1.8036599 8.3776455 1.6657625 48
0.31779718 1.4761053 -0.079131968 26
1.6090372 7.4736609 1.764966 31
1.7108748 7.9466772 -0.14188807 42
1.3950454 6.4797115 1.7760162 60
0.248087 1.1144449 -0.30592412 1
1.7719597 7.9599142 0.14234182 37
0.29471749 1.3239162 -0.31313187 3
1.8118975 8.1393213 0.43700522 36
0.29648596 1.3318604 -0.26522452 31
1.8191689 8.1719856 0.73245686 21
0.30604282 1.3747913 -0.22307555 1
1.8681496 8.3920145 1.0556322 9
1.8697371 8.3991461 1.3628571 30
0.32036769 1.4391407 -0.1289905 1
1.8667951 8.3859291 1.6699604 47
0.33156639 1.4894471 -0.079969339 1
1.6624439 7.4679523 1.7663157 29
1.7632693 7.920876 -0.14164373 42
1.4402479 6.4698143 1.7760162 60
0.24304971 1.0918165 -0.29971245 1
1.7658764 7.9325871 0.14185315 39
0.29344717 1.3182096 -0.31178215 1
1.8223133 8.1861105 0.43951735 37
0.29691255 1.3337767 -0.26560614 31
1.8260958 8.2031021 0.73524582 25
0.30561361 1.3728631 -0.22276267 6
1.8741884 8.4191418 1.0590446 9
0.31444955 1.4125556 -0.1776855 1
1.8796095 8.4434938 1.3700531 30
0.32036769 1.4391407 -0.1289905 1
1.8757536 8.4261723 1.6779743 50
1.1261975 5.0590515 -0.27162361 2
1.6649845 7.4793653 1.7690151 31
1.7615312 7.9130683 -0.14150411 44
1.438149 6.4603858 1.7734281 38
0.24547088 1.0675005 -0.29350081 1
1.8158352 7.8966799 0.1414343 38
0.30002248 1.3047339 -0.30908275 1
1.8892652 8.216011 0.44182014 37
0.30973649 1.3469779 -0.26865906 18
1.8940352 8.2367544 0.7394293 23
0.31607583 1.3745464 -0.22338842 6
1.9400367 8.4368057 1.0629444 9
0.32964164 1.4335412 -0.18061037 1
1.9460355 8.4628935 1.3753718 29
0.33129987 1.4407525 -0.12933913 1
1.9450924 8.4587917 1.6871332 48
1.1543272 5.0199223 -0.26994887 2
1.7171593 7.4675593 1.7690151 32
1.8131465 7.8849869 -0.14122488 48
1.4892766 6.4765463 1.7806751 63
0.24200745 1.0524387 -0.28935969 1
1.8848478 8.1968002 0.14680964 35
0.29521865 1.2838429 -0.30413383 1
1.8986645 8.2568865 0.44401824 37
0.30973649 1.3469779 -0.26865906 9
1.9078766 8.2969484 0.74483299 23
0.31784657 1.3822469 -0.22463989 7
1.9480442 8.4716282 1.0673317 9
0.33142108 1.4412795 -0.18158533 1
1.9540038 8.4975452 1.3810035 30
1.951252 8.4855785 1.6924758 46
1.1525367 5.0121365 -0.26953018 2
1.7175961 7.4694586 1.769465 28
1.4862461 6.4633675 1.7770516 60
0.24131978 1.0168899 -0.2800422 1
1.9678825 8.2923994 0.14876431 33
0.29607499 1.2476212 -0.29603559 1
1.9645627 8.27841 0.44590235 34
0.32185245 1.356244 -0.27094877 12
1.9726539 8.3125048 0.74744767 23
0.33113754 1.3953702 -0.22714284 9
1.9915553 8.3921528 1.0590446 11
0.34101659 1.4369993 -0.18134159 1
2.0178409 8.5029173 1.3841321 30
1.4215252 5.9901214 -0.5386225 2
2.0190575 8.5080433 1.6997266 43
1.1874998 5.0039682 -0.26953018 2
1.7688005 7.4534936 1.7685652 32
1.5282099 6.4396763 1.7734281 46
0.22927609 0.96613944 -0.26606598 1
0.29067543 1.2248682 -0.29063675 1
1.9747083 8.3211622 0.44820514 30
0.32185245 1.356244 -0.27094877 15
1.9800144 8.3435211 0.75023663 17
0.33478644 1.4107462 -0.22964579 12
2.0002639 8.4288502 1.0636756 6
0.33964154 1.4312049 -0.18061037 1
2.0287876 8.5490456 1.391641 35
1.4132445 5.9552274 -0.53548491 2
2.0249505 8.532876 1.7046876 45
1.1884221 5.0078549 -0.26973951 2
1.7710503 7.4629741 1.7708147 26
1.2175754 5.130703 -0.092043988 45
1.5246414 6.4246392 1.769287 27
0.22621126 0.92514849 -0.25519559 29
0.2786403 1.1395704 -0.27084106 1
2.0431619 8.3560305 0.45082194 37
0.33340809 1.3635572 -0.27285686 6
2.0466983 8.3704939 0.75389719 21
0.34625798 1.4161102 -0.23089728 13
2.059948 8.4246817 1.0648943 6
0.36446324 1.4905651 -0.18841 1
2.0986612 8.5830088 1.3994627 31
1.4471222 5.9183745 -0.53304452 2
2.0909116 8.5513153 1.7111751 47
1.2158403 4.9724879 -0.2682741 2
1.8222706 7.4526391 1.7712646 28
1.2505707 5.1145267 -0.091904372 50
1.5660427 6.4047298 1.7666988 22
0.22483473 0.91951877 -0.25364268 80
1.4989749 6.1304393 0.11015959 0
0.27308601 1.1168547 -0.26544225 1
2.0569191 8.4122934 0.45385742 28
0.33853745 1.384535 -0.27705467 1
2.0566361 8.4111366 0.75755769 18
0.34719637 1.4199479 -0.23152301 12
2.068435 8.4593906 1.0692816 6
0.57286263 2.3428674 -0.29614252 1
2.1066375 8.6156292 1.4047815 29
1.4452294 5.9106331 -0.53234726 2
2.1030357 8.6008987 1.7210971 47
1.2134684 4.9627876 -0.26775074 2
1.8218077 7.4507461 1.7708147 32
1.2486708 5.1067567 -0.091764756 49
1.5687957 6.4159889 1.7698046 13
0.23360832 0.9272933 -0.25623086 66
1.559323 6.1896329 0.11141616 0
0.27897218 1.1073623 -0.26364264 1
2.1204765 8.4170961 0.45490414 28
0.34435815 1.3669076 -0.27400172 1
2.1299081 8.4545345 0.76278704 22
0.35806605 1.4213204 -0.23214875 2
2.1400502 8.4947929 1.0756189 6
0.59502417 2.3619103 -0.29906738 1
2.1720424 8.6217833 1.408223 29
1.482564 5.8849435 -0.53095281 2
2.1731012 8.6259871 1.7291111 45
1.2422303 4.930954 -0.26649469 2
1.8723508 7.4321766 1.769465 30
1.2784299 5.0746455 -0.091345899 49
1.6168528 6.4179935 1.7734281 5
0.22841702 0.90668678 -0.25053683 99
0.2761158 1.096024 -0.26094323 1
2.1321864 8.4635782 0.45741627 31
0.33908245 1.3459662 -0.26980391 1
2.1420763 8.5028353 0.76714486 13
0.38460734 1.5266743 -0.24935654 1
2.1541135 8.5506163 1.0826873 6
0.59308439 2.3542106 -0.29809242 1
2.1783156 8.6466846 1.4122903 31
1.4864578 5.9003992 -0.53234726 2
2.1822138 8.662159 1.7363619 43
1.1778257 4.6753035 -0.25267801 2
1.8728268 7.4340663 1.7699149 30
1.2730563 5.0533156 -0.090961941 49
1.6177967 6.4217405 1.7744634 11
0.23765129 0.91628993 -0.25364268 80
1.5844231 6.1089125 0.11015959 0
0.28963161 1.1167057 -0.26634204 1
2.2067649 8.5084181 0.46066108 33
0.34058455 1.3131602 -0.26369804 1
2.2063866 8.506959 0.76888794 9
0.46766186 1.8031203 -0.29503539 1
2.2421622 8.6448956 1.0965804 9
0.59455425 2.2923675 -0.29078025 1
2.2500336 8.6752453 1.4194863 29
2.248548 8.6695175 1.7409413 42
1.2179579 4.6959662 -0.25424808 2
1.9266373 7.4283562 1.7717144 33
1.3052915 5.032691 -0.090752512 48
1.658224 6.3934598 1.7698046 11
0.2391063 0.92189986 -0.25519559 71
0.28865314 1.1129329 -0.26544225 1
2.2218077 8.5664167 0.46380123 32
0.31249002 1.2048386 -0.2419458 1
2.2193918 8.5571022 0.77342004 9
0.45774326 1.764878 -0.28877804 1
2.2566149 8.7006197 1.1036488 9
0.46597502 1.7966166 -0.22789568 1
2.2639198 8.7287846 1.4282466 29
0.43717566 1.6855775 -0.15234824 1
2.2618561 8.7208271 1.7512449 53
0.44877407 1.7302964 -0.093681365 1
1.9305513 7.4434466 1.7753137 26
1.3052915 5.032691 -0.090752512 48
1.655314 6.3822398 1.7666988 16
0.24802673 0.92954087 -0.25778377 40
1.6270324 6.0977025 0.11015959 0
0.31550696 1.1824396 -0.28253853 1
2.2882519 8.5757837 0.46516198 30
0.31481999 1.179865 -0.23736639 1
2.2944865 8.5991507 0.77864939 18
0.45681223 1.7120157 -0.28064343 1
2.3254895 8.7153416 1.1075486 9
0.45189419 1.6935842 -0.21522126 1
2.3360064 8.754756 1.4351298 28
0.44122767 1.6536088 -0.14973357 1
2.3302753 8.7332773 1.7569692 48
1.9804592 7.422256 1.7735142 29
1.3367854 5.0099311 -0.090508178 46
1.702818 6.3817277 1.7698046 19
0.24752867 0.92767435 -0.25726613 49
0.31148776 1.1673766 -0.27893931 1
2.3000946 8.6201677 0.46756944 32
0.30469719 1.1419272 -0.22973403 1
2.307328 8.6472769 0.7830072 15
0.44713616 1.6757523 -0.27469891 1
2.3377721 8.7613735 1.1133983 6
0.45138243 1.6916662 -0.21497752 1
2.3421175 8.7776594 1.4388843 28
0.4386594 1.6439836 -0.148862 10
2.3510273 8.8110504 1.7726156 59
0.44127628 1.653791 -0.089703828 29
1.9784496 7.4147248 1.7717144 31
1.3311145 4.988678 -0.090124227 45
1.7053082 6.3910604 1.7723929 24
0.25348791 0.92406064 -0.2567485 45
0.30622607 1.1163116 -0.26724187 1
2.3734274 8.6520529 0.47018623 33
0.31266183 1.1397723 -0.22973403 1
2.3792365 8.6732292 0.78684205 15
0.46404991 1.6916399 -0.27782762 8
2.7470543 10.014066 1.2749971 6
2.6614935 9.7021646 1.5934415 12
0.44907165 1.6370384 -0.14851339 13
2.4322183 8.8663683 1.787117 99
0.44805577 1.633335 -0.088761784 13
2.0332587 7.4120078 1.7744139 33
1.3643224 4.9734783 -0.090019509 44
1.74784 6.3715472 1.7703223 22
0.25297686 0.92219764 -0.25623086 60
0.30416396 1.1087942 -0.26544225 1
2.3882217 8.7059841 0.47311705 34
0.31473932 1.1473455 -0.23126051 1
2.3929405 8.7231855 0.79137415 18
0.45621124 1.6630648 -0.27313459 6
2.7601831 10.061925 1.2810905 6
0.4589802 1.6731588 -0.21302761 7
2.6609709 9.7002592 1.5931286 12
0.44749039 1.6312741 -0.14799045 16
2.435854 8.8796215 1.7897884 38
0.45281106 1.6506699 -0.089703828 12
2.0358365 7.4214044 1.7766634 30
1.3622063 4.9657645 -0.089879893 44
1.74784 6.3715472 1.7703223 22
0.26098096 0.9259873 -0.25778377 40
1.712011 6.0743909 0.11015959 0
0.31401187 1.1141465 -0.26724187 1
2.4641128 8.7429256 0.47604784 33
0.3312628 1.1753545 -0.23736639 1
2.465131 8.7465382 0.79503471 18
0.46566695 1.6522342 -0.2718831 6
2.8427463 10.086355 1.2866966 6
0.46203375 1.6393433 -0.2091278 1
2.7318413 9.6928539 1.5950058 14
0.45778689 1.624275 -0.14764182 15
2.5004482 8.8718481 1.7916964 41
0.45890579 1.6282449 -0.088657111 12
2.0923553 7.4238915 1.7807126 34
1.3946706 4.9484344 -0.089740276 44
1.7907068 6.3536115 1.7687694 22
0.26098096 0.9259873 -0.25778377 38
1.6762085 5.94736 0.10785587 0
0.31084004 1.1028924 -0.26454243 1
2.474407 8.7794504 0.47803661 32
0.32274157 1.1451203 -0.23126051 1
2.4840479 8.8136568 0.8011356 11
0.46566695 1.6522342 -0.2718831 6
2.8502853 10.113105 1.2901089 6
0.46311077 1.6431646 -0.20961528 3
2.7361283 9.7080641 1.5975088 12
0.45616543 1.6185219 -0.1471189 15
2.5015135 8.8756266 1.7924597 37
0.45944759 1.6301672 -0.088761784 13
2.0928838 7.4257674 1.7811625 30
1.3930432 4.9426603 -0.089635558 44
1.793327 6.3629088 1.7713575 22
0.27033484 0.9353714 -0.26088959 26
1.7100636 5.9169016 0.10750683 0
0.32247636 1.1157836 -0.26814166 1
2.5475521 8.8146524 0.48086277 34
0.33032915 1.1429546 -0.23126051 1
2.5601492 8.8582382 0.80671358 18
0.47716314 1.6510072 -0.27219597 6
2.9332783 10.149283 1.2971773 6
0.47454953 1.6419641 -0.20985901 6
2.7993569 9.6859083 1.5968831 14
0.47076207 1.6288593 -0.14833908 14
2.5625038 8.8663855 1.7939862 31
0.4663673 1.6136532 -0.088029079 12
2.1399229 7.4042354 1.7793628 32
1.4246829 4.9294705 -0.089565746 46
1.836024 6.3527308 1.7718751 24
0.26711655 0.92423606 -0.25778377 40
1.6634254 5.7555318 0.10457482 0
0.32464063 1.1232721 -0.26994127 1
2.5580885 8.8511076 0.48285154 32
0.33032915 1.1429546 -0.23126051 1
0.47826004 1.6548026 -0.27282169 8
2.9514666 10.212215 1.3052207 9
0.47289604 1.6362429 -0.2091278 14
2.7993569 9.6859083 1.5968831 14
0.46854934 1.6212031 -0.14764182 16
2.5641391 8.8720436 1.7951311 33
0.46913999 1.6232468 -0.088552438 11
2.141546 7.4098516 1.7807126 28
1.419686 4.9121809 -0.089251608 49
1.834415 6.3471632 1.7703223 22
0.27356237 0.92234874 -0.25778377 34
1.6967424 5.7207727 0.10415597 0
0.3258251 1.0985588 -0.26454243 1
3.0292888 10.213614 0.55831999 41
0.34276637 1.1556784 -0.23431344 1
3.0366328 10.238376 0.93430954 31
0.48699251 1.6419543 -0.27125737 5
3.0368004 10.23894 1.3113141 6
0.4854365 1.6367079 -0.20961528 10
2.8702788 9.6774931 1.5987602 14
0.47475713 1.6007012 -0.14607303 15
2.6226652 8.8426332 1.7928413 35
0.48273256 1.6275913 -0.088971123 11
2.1959946 7.4040618 1.7829621 31
1.8770335 6.3286457 1.7687694 27
0.27246374 0.91864449 -0.2567485 47
1.6978797 5.724607 0.10422577 0
0.32471684 1.0948222 -0.26364264 1
3.0468943 10.272973 0.5615648 36
0.34164986 1.1519139 -0.23355021 1
3.0519292 10.289949 0.93901598 21
0.48193723 1.6249098 -0.26844153 1
3.0480895 10.277003 1.3161889 6
0.48995218 1.6519331 -0.21156518 11
2.871964 9.6831741 1.5996988 12
0.47645673 1.6064316 -0.14659595 7
2.6209905 8.8369865 1.7916964 33
0.47534958 1.6026987 -0.087610394 12
2.1998734 7.41714 1.7861114 29
1.6307833 5.4983835 -0.10010701 1
1.881428 6.3434625 1.7729105 24
0.28240576 0.92776006 -0.25985432 24
1.7329772 5.6931806 0.10387672 0
0.36205176 1.1894133 -0.28703755 1
3.0720541 10.092319 0.55287707 32
0.35331422 1.1607087 -0.23583992 1
3.1411488 10.31931 0.94372237 23
0.45846301 1.5061437 -0.24935654 1
3.134269 10.296708 1.3215512 6
0.4954018 1.6274952 -0.20888406 10
2.9446325 9.6737137 1.6015761 14
0.49258134 1.6182294 -0.14799045 1
2.6887326 8.8330307 1.7947494 37
0.48913243 1.606899 -0.088029079 12
2.2517576 7.3974795 1.7852116 30
1.9273349 6.3316851 1.7734281 22
0.28578112 0.93884879 -0.26296014 26
1.7271539 5.6740503 0.10352767 0
0.36205176 1.1894133 -0.28703755 1
3.058677 10.048373 0.55046958 28
0.35331422 1.1607087 -0.23583992 1
3.1568141 10.370773 0.94842881 26
0.39173564 1.2869308 -0.21306375 1
3.1527672 10.357478 1.3293508 6
0.49135536 1.6142018 -0.20717788 10
2.9429069 9.6680441 1.6006374 14
0.48735964 1.6010751 -0.14642164 1
2.6870174 8.8273964 1.7936046 34
0.48447955 1.5916134 -0.087191701 12
2.2500553 7.3918867 1.7838619 28
1.92846 6.3353815 1.7744634 22
0.29002669 0.92945421 -0.26088959 23
1.7691065 5.6694899 0.1036673 0
3.1222086 10.005802 0.54931819 25
0.36959606 1.1844517 -0.24118257 1
3.237447 10.375109 0.95086914 23
0.39835683 1.2766218 -0.21181227 1
3.2415552 10.388275 1.3361754 6
0.50675172 1.623997 -0.20888406 1
3.0132723 9.6566925 1.6022018 12
0.49318394 1.5805161 -0.14485285 1
2.7485783 8.8084221 1.7936046 34
0.49974376 1.6015384 -0.087924406 14
2.3027661 7.3797188 1.7847617 28
1.9703401 6.3143873 1.7723929 22
0.28772491 0.9220776 -0.25881904 25
1.7726804 5.6809435 0.10387672 0
0.32623002 1.0454757 -0.25284499 1
3.1132846 9.9772034 0.54774809 28
3.254658 10.430265 0.95592421 21
0.39718002 1.2728505 -0.21118653 1
3.258112 10.441334 1.3430002 9
0.49196896 1.5766225 -0.20279059 7
3.0132723 9.6566925 1.6022018 14
0.49318394 1.5805161 -0.14485285 1
2.7479935 8.8065481 1.7932229 30
0.49438936 1.5843791 -0.086982362 12
2.3062489 7.3908806 1.787461 28
1.9697647 6.3125434 1.7718751 27
0.29768503 0.93108702 -0.26192486 24
1.4542226 4.5484576 0.083352692 0
0.35607204 1.1137075 -0.26994127 1
3.1779964 9.9400063 0.54691076 31
0.38144326 1.1930625 -0.24347228 13
3.3425636 10.454734 0.96028197 21
0.39222044 1.226771 -0.20399055 1
3.3448303 10.461823 1.3486061 6
0.45581093 1.4256667 -0.18377897 6
3.0854273 9.6504726 1.6047047 14
0.50663292 1.5846256 -0.14555009 1
2.8100052 8.7890186 1.7936046 35
0.50787121 1.5884986 -0.087401047 12
2.3583839 7.3764563 1.7879109 29
1.4329085 4.4817924 -0.082131028 1
2.0179045 6.3115187 1.7754986 31
0.29768503 0.93108702 -0.26192486 24
1.4785813 4.6246462 0.084748887 0
0.38574472 1.2065165 -0.29243636 1
3.16644 9.903861 0.54492199 32
0.3802475 1.1893226 -0.24270904 1
3.363193 10.519258 0.96620858 21
0.39582983 1.2380602 -0.20586775 1
3.3581297 10.50342 1.3539684 6
3.0890367 9.6617622 1.6065819 12
0.50602615 1.5827278 -0.14537577 1
2.8064179 8.7777987 1.7913148 34
0.50178891 1.5694747 -0.08635433 12
2.3583839 7.3764563 1.7879109 29
2.0190811 6.3151989 1.776534 25
0.30538023 0.93265796 -0.26296014 27
1.525143 4.6579204 0.085551694 0
0.38324317 1.1704582 -0.28433815 1
3.2236958 9.8454504 0.54293323 30
3.4539082 10.548538 0.9710893 21
0.44072989 1.3460277 -0.22432703 6
3.4511416 10.54009 1.361768 6
0.52072889 1.5903518 -0.20547171 15
3.1551833 9.6362066 1.6059562 14
0.51706326 1.5791565 -0.14537577 1
2.8712952 8.769187 1.7936046 33
0.51894855 1.5849143 -0.087401047 14
2.4104297 7.3616638 1.7883608 27
1.5475441 4.7263355 -0.086808272 1
2.0625188 6.2991133 1.7760162 25
0.30538023 0.93265796 -0.26296014 24
1.5375881 4.6959291 0.086249791 0
0.38203037 1.1667542 -0.28343832 1
3.213752 9.8150806 0.54125845 60
0.39709401 1.21276 -0.24805169 1
3.4706476 10.599663 0.97579569 47
0.50035441 1.5281262 -0.2546753 8
3.4702907 10.598572 1.369324 11
0.52258205 1.5960114 -0.20620292 17
3.1588714 9.6474705 1.6078334 12
0.50962353 1.5564349 -0.14328404 1
2.8767934 8.7859793 1.7970392 37
0.51149058 1.5621371 -0.086144984 13
2.4092169 7.3579597 1.787461 28
1.5475441 4.7263355 -0.086808272 1
2.0625188 6.2991133 1.7760162 28
0.31065601 0.92683989 -0.26192486 26
1.5881282 4.7381687 0.087227128 0
0.39759821 1.1862314 -0.28883716 1
3.2764826 9.775362 0.5403164 62
0.40305522 1.2025123 -0.24652523 1
3.5483611 10.586509 0.97684157 42
0.53109932 1.5845309 -0.26468712 11
3.5479827 10.58538 1.3707864 15
0.53623492 1.5998529 -0.20717788 17
3.2274015 9.6289282 1.6084591 12
0.5217433 1.5566174 -0.14363267 1
2.9355648 8.7582359 1.7955127 37
0.52936584 1.5793591 -0.087296374 13
2.4660997 7.3575907 1.7915102 29
1.6122775 4.8102179 -0.088553511 1
2.107058 6.2863922 1.776534 28
0.31065601 0.92683989 -0.26192486 26
1.5944833 4.7571292 0.087576173 0
0.37778023 1.1271045 -0.27444029 1
3.2701354 9.7564249 0.53926969 65
0.39057675 1.1652828 -0.23889287 1
3.5369639 10.552505 0.97370398 34
0.53235489 1.5882769 -0.26531285 11
3.5315802 10.536443 1.3644491 13
0.53686577 1.6017351 -0.20742162 17
3.228657 9.6326742 1.609085 12
0.52047694 1.5528392 -0.14328404 1
2.9343169 8.7545128 1.7947494 30
0.52111435 1.5547408 -0.085935637 12
2.4685771 7.3649812 1.7933098 29
1.6122775 4.8102179 -0.088553511 1
2.1064441 6.2845607 1.7760162 28
0.31883675 0.93018633 -0.2634778 20
1.6268269 4.7461658 0.087576173 0
0.36775091 1.0728903 -0.26184303 1
3.3261073 9.7037096 0.53759491 71
0.37940204 1.1068817 -0.22744432 1
0.5418725 1.5808792 -0.26468712 11
3.5935621 10.483993 1.3607931 13
0.54646862 1.594288 -0.20693414 17
3.2973518 9.6198177 1.6106492 14
0.53103465 1.5492604 -0.14328404 1
2.9963849 8.741766 1.7962759 34
0.53751343 1.5681618 -0.086877689 13
2.5161238 7.3406339 1.7915102 29
1.644982 4.7991319 -0.088553511 1
2.1529312 6.2810421 1.7791221 23
0.32384795 0.94480616 -0.26761889 22
1.6462787 4.8029156 0.088623323 0
0.36775091 1.0728903 -0.26184303 1
3.3125074 9.6640339 0.53539681 76
0.37176308 1.0845956 -0.22286491 1
3.3270419 9.7064371 0.89770412 10
0.5418725 1.5808792 -0.26468712 9
3.5851946 10.459581 1.3576245 13
0.54067564 1.5773875 -0.20474049 17
3.2999139 9.6272926 1.6119007 14
0.5368489 1.5662231 -0.14485285 1
2.9963849 8.741766 1.7962759 27
0.53038979 1.547379 -0.085726298 13
2.5142283 7.3351035 1.7901605 28
1.644982 4.7991319 -0.088553511 1
2.1504254 6.2737322 1.7770516 28
0.3309103 0.94440305 -0.26813653 13
1.7014155 4.855763 0.089810081 0
0.37633407 1.0740404 -0.26274282 1
3.3742485 9.6299534 0.53476882 72
0.37783858 1.0783343 -0.22210167 1
3.3838103 9.6572418 0.89526379 17
0.553927 1.5808827 -0.26531285 1
3.6510556 10.419948 1.3556746 13
0.55205643 1.5755441 -0.20498423 17
3.3660212 9.606472 1.6122136 12
0.54552078 1.5568918 -0.14432991 1
3.0603628 8.7341375 1.7989472 30
0.54553324 1.5569272 -0.086459003 14
2.5660312 7.3233376 1.7915102 29
1.6776103 4.7878242 -0.088553511 1
2.1943569 6.2625957 1.7780868 25
0.32835501 0.93711036 -0.26606598 9
1.692158 4.8293424 0.08932142 0
0.3789117 1.0813969 -0.26454243 1
3.3643417 9.6016798 0.53319871 71
0.37913701 1.08204 -0.22286491 1
3.3765631 9.6365585 0.89334637 17
0.54870129 1.5659686 -0.2628099 1
3.6412091 10.391847 1.3520185 13
0.55271286 1.5774175 -0.20522797 17
3.3745129 9.6307077 1.6162809 8
0.53893238 1.5380887 -0.1425868 1
3.0623105 8.7396955 1.8000921 34
0.54355186 1.5512725 -0.086144984 13
2.5673201 7.3270154 1.79241 29
1.6776103 4.7878242 -0.088553511 1
2.1911628 6.25348 1.7754986 23
0.33912852 0.94558889 -0.2691718 11
1.7423646 4.8582191 0.090089321 0
0.38485488 1.0730872 -0.26319274 1
3.4440742 9.6030798 0.53466415 21
0.3877213 1.0810796 -0.22324653 1
3.4390399 9.5890427 0.8912546 12
0.5528301 1.541451 -0.25936833 1
3.708575 10.340585 1.3488499 13
0.56560123 1.5770607 -0.20571545 18
3.4410172 9.5945559 1.6144037 8
0.55355561 1.543474 -0.14345835 1
3.1236417 8.7096214 1.7985656 27
0.55423433 1.5453664 -0.086040311 13
2.6255655 7.3208399 1.7955593 27
1.7140117 4.7791624 -0.088623323 1
2.237596 6.2390685 1.7760162 23
0.34238937 0.9546811 -0.27175999 8
1.7241377 4.8073969 0.08914689 0
0.38090765 1.0620812 -0.26049331 1
3.4326119 9.5711193 0.53288472 11
0.39037237 1.0884717 -0.22477299 15
3.4437482 9.6021709 0.89247483 5
0.52882296 1.4745122 -0.24810506 1
3.6965125 10.306951 1.3444626 11
0.56359082 1.571455 -0.20498423 18
3.457022 9.6391821 1.6219125 19
0.54951996 1.5322214 -0.14241248 2
3.1262929 8.7170134 1.8000921 28
0.5481661 1.5284463 -0.085098267 12
2.6255655 7.3208399 1.7955593 27
1.7302134 4.8243375 -0.089461036 1
2.2428136 6.2536159 1.7801574 25
0.35901865 0.9794752 -0.27952456 4
