# .PCD v0.7 - Point Cloud Data file format
VERSION 0.7
FIELDS x y z intensity
SIZE 4 4 4 4
TYPE F F F F
COUNT 1 1 1 1
WIDTH 1345
HEIGHT 1
VIEWPOINT 0 0 0 1 0 0 0
POINTS 1345
DATA ascii
0.76596361 0.63795036 -0.26710126 1
0.86999094 0.72459191 -0.26139313 1
10.466547 8.7173042 0.71386242 1
0.81612843 0.67973125 -0.20645534 1
10.393569 8.6565218 1.1834006 12
0.7953639 0.66243708 -0.16394332 1
10.364655 8.6324406 1.6562043 4
0.79991752 0.66622967 0.16488193 45
0.74403805 0.61968917 -0.084715381 5
0.80556852 0.67093623 0.203784 46
0.79496652 0.6621061 -0.054220051 12
0.81758183 0.68094176 0.24564655 47
5.3157282 4.4273262 1.853662 6
0.7584545 0.62277985 -0.26296014 1
9.0934467 7.466784 0.20537992 6
0.75480592 0.619784 0.051184565 5
0.76990342 0.63218081 0.087155744 42
10.424667 8.5598717 1.6562043 4
0.78089118 0.64120305 -0.12406299 32
0.80760247 0.66313612 0.16550766 50
0.80416369 0.66031253 0.20225753 45
0.82382184 0.67645413 0.24609645 55
0.77118117 0.63322997 -0.017417502 55
5.352479 4.3950114 1.8557326 3
0.75994748 0.62400579 -0.2634778 1
0.76190847 0.62561601 0.017208073 100
0.75755459 0.62204099 -0.22630076 22
0.7301088 0.59950477 0.049509816 10
0.76319689 0.62667394 -0.19195385 33
0.77452284 0.63597387 0.087678678 35
0.75874937 0.62302202 -0.15549585 56
10.415462 8.5523129 1.654742 4
0.76094699 0.62482655 -0.12089439 43
0.81065577 0.66564322 0.1661334 50
0.75912482 0.6233303 -0.085935563 59
0.80871558 0.6640501 0.20340239 44
0.75789303 0.62231886 -0.051393908 100
0.81930357 0.6727441 0.24474674 56
0.74954486 0.61546403 -0.016928835 96
5.3644233 4.404819 1.8598737 3
0.76417732 0.61881858 -0.2634778 1
0.76614922 0.62041539 0.017208073 100
0.75874221 0.61441731 -0.22540095 42
0.74348551 0.6020627 0.050137848 2
0.76439333 0.61899352 -0.19119062 33
0.78967243 0.63946414 0.08889886 20
0.76297253 0.61784297 -0.15549585 54
10.467263 8.476223 1.653767 4
0.76055431 0.61588472 -0.12016317 53
0.81516784 0.66010988 0.1661334 52
0.76180166 0.61689484 -0.085761249 60
0.81321687 0.65853006 0.20340239 44
0.75745499 0.61337495 -0.051079892 100
0.81780601 0.66224623 0.24294713 46
0.73817623 0.5977633 -0.016579786 100
5.4032893 4.3754973 1.8629795 3
0.74916404 0.60666108 -0.25830141 1
0.77547354 0.62796611 0.017417502 54
0.75268441 0.60951179 -0.22360134 48
0.75435066 0.61086112 0.050870549 2
0.74913597 0.60663837 -0.18737443 34
0.76757801 0.62157243 -0.15643446 15
10.473434 8.4812202 1.654742 4
0.75284076 0.60963845 -0.11894448 34
0.80902719 0.6551373 0.16488193 52
0.73857599 0.59808707 -0.08314658 100
0.81626832 0.66100109 0.20416562 44
0.7527985 0.60960418 -0.050765876 41
0.82234937 0.66592538 0.24429685 35
0.73662215 0.59650487 -0.016544882 100
5.3852735 4.3609085 1.8567678 3
0.74583215 0.59538996 -0.25571322 3
0.77367401 0.61761582 -0.22855027 2
0.74923146 0.59810358 0.050242517 2
1.0540802 0.84146118 -0.26217157 1
10.546191 8.4189138 1.1806117 6
1.0080997 0.80475539 -0.20430341 1
10.527735 8.4041796 1.6540108 4
0.77104098 0.61551392 -0.12113813 3
0.80586219 0.64331132 0.16331758 43
0.73494792 0.58670121 -0.082275018 23
0.82393169 0.65773606 0.20492886 44
0.75391412 0.60184175 -0.050556533 41
0.72982895 0.58261478 -0.016300548 100
5.4246454 4.3304377 1.8598737 3
0.74885166 0.59780043 -0.2567485 2
9.1377087 7.2945371 0.20408843 0
0.75859684 0.60557991 0.050870549 4
1.1093159 0.88555521 -0.27590981 1
10.533735 8.4089699 1.1792172 12
1.0729392 0.85651606 -0.21744391 1
10.52308 8.400465 1.6532795 4
1.0564967 0.84339029 -0.16598605 3
0.82130015 0.6556353 0.16644627 28
0.74896181 0.59788835 -0.083843827 29
0.81779444 0.65283668 0.20340239 44
0.75235325 0.60059571 -0.050451864 43
6.332552 5.0552101 1.870693 6
0.73608017 0.58760506 -0.016440166 100
5.4306846 4.3352585 1.8619442 3
0.79855162 0.62839812 -0.27227762 1
9.2119827 7.2491159 0.20461202 1
0.93876714 0.73873687 -0.27579001 1
0.75966692 0.59779894 0.050661206 4
1.1216425 0.88264561 -0.27743629 1
10.603144 8.3438511 1.1804373 12
1.0105885 0.79525477 -0.20367767 1
10.587709 8.331706 1.6542544 4
0.88451916 0.6960479 -0.13819984 1
0.82585734 0.64988565 0.16644627 12
0.75624901 0.59510928 -0.084192447 100
0.82850343 0.65196794 0.20492886 44
0.75024956 0.59038824 -0.050033174 39
6.3508439 4.9976211 1.865744 8
0.74802184 0.58863515 -0.01661469 100
5.4699268 4.3044076 1.8650501 3
0.83802372 0.65945965 -0.28573623 1
0.88788307 0.69869506 0.019721219 1
0.96327001 0.75801873 -0.28298843 1
0.74397135 0.58544773 0.049614485 5
1.0013012 0.78794634 -0.24767007 1
10.637589 8.3709574 1.1842723 9
0.93607509 0.73661846 -0.18865997 4
10.58303 8.328023 1.6535232 4
9.7628136 7.6825767 1.9676327 5
0.75624901 0.59510928 -0.084192447 100
0.83313197 0.6556102 0.20607372 46
0.75652784 0.59532869 -0.050451864 39
6.3477807 4.9952111 1.8648442 8
0.74487889 0.58616185 -0.016544882 100
5.4729629 4.306797 1.8660853 3
0.84566009 0.65596122 -0.28677151 1
10.70339 8.3023996 0.2364452 0
0.89308792 0.69275004 -0.26094323 1
0.75435299 0.58513612 0.050033174 4
0.88732946 0.68828326 -0.21828549 1
0.87373453 0.67773795 0.096742876 83
0.89749092 0.69616532 -0.17989963 28
10.644049 8.2563705 1.6540108 4
0.87367159 0.67768914 -0.13576245 30
9.7959185 7.5984931 1.9635653 5
0.75093943 0.5824883 -0.08314658 100
0.8423425 0.65338778 0.20721857 50
0.75750923 0.58758438 -0.050242517 39
6.4040565 4.9674954 1.8711429 8
0.73789239 0.57236803 -0.016300548 69
5.5028963 4.2684841 1.8660853 3
0.82428962 0.63938457 -0.27952456 1
0.77013439 0.59737748 0.051079892 3
0.88318032 0.68506485 0.097788744 61
0.88188237 0.68405813 -0.17677094 45
10.644049 8.2563705 1.6540108 4
0.8799457 0.68255585 -0.13673741 37
9.8052835 7.6057577 1.9654427 2
0.74464226 0.5776037 -0.082449332 22
0.83613735 0.64857465 0.2056921 55
0.76224369 0.5912568 -0.050556533 37
6.3978972 4.9627175 1.8693433 8
0.73315215 0.56869113 -0.016195834 100
5.5028963 4.2684841 1.8660853 3
0.84726256 0.64754689 -0.28573623 1
0.88337237 0.67514491 0.019407077 69
0.87324923 0.66740799 -0.25374478 9
0.76804191 0.58700001 0.050661206 4
0.87351382 0.66761017 -0.21370608 24
0.87733793 0.67053288 -0.17489374 32
10.699703 8.1775818 1.6535232 4
0.88480741 0.67624164 -0.13673741 31
9.865736 7.5401964 1.9666941 2
0.74875635 0.57226044 -0.082449332 22
0.83451766 0.63780618 0.20416562 53
0.7521733 0.5748719 -0.049614485 73
6.4487286 4.9286423 1.8738422 7
0.74991322 0.57314461 -0.016475072 100
5.5271602 4.2243047 1.8640147 3
0.85033238 0.64989305 -0.28677151 1
10.749816 8.2158823 0.23616597 8
0.85157281 0.65084112 -0.24744616 2
0.77438939 0.59185123 0.051079892 3
0.86883426 0.66403371 -0.21256122 3
10.715289 8.1894941 1.1799145 9
0.89774114 0.68612665 -0.17896102 7
10.687085 8.1679382 1.6515733 4
0.92739171 0.70878804 -0.14331836 7
9.9724598 7.6217637 1.9879692 2
0.75350535 0.57589 -0.082972266 100
0.84075701 0.64257479 0.2056921 53
0.7521733 0.5748719 -0.049614485 16
6.4347939 4.9179921 1.8697932 7
0.74355805 0.56828743 -0.016335452 100
5.5363698 4.2313433 1.8671206 3
0.83622217 0.63013858 -0.28055984 1
0.69568086 0.52423316 -0.20110624 15
0.75925905 0.57214272 0.049823832 2
10.781923 8.1247616 1.1811346 12
1.0869706 0.81909102 -0.21556669 1
10.751946 8.1021729 1.6530358 4
1.1319507 0.8529861 -0.17402942 3
0.75740784 0.57074773 -0.082972266 100
0.84824723 0.63920015 0.20645534 44
6.4603386 4.8682141 1.8675437 6
0.70428926 0.53072 -0.015393022 100
5.5712147 4.1982112 1.8691912 3
0.79302251 0.59758532 -0.26606598 1
0.60230088 0.45386627 -0.17411211 30
0.76882952 0.57935458 0.050451864 2
0.71340573 0.53758979 -0.17363618 13
10.780332 8.1235628 1.1809603 9
1.1074793 0.83454555 -0.21963398 1
10.758288 8.1069517 1.6540108 4
1.1478044 0.86493266 -0.17646681 5
0.76536381 0.57674301 -0.083843827 100
0.84511137 0.63683712 0.2056921 20
0.76563936 0.57695067 -0.050242517 100
6.4743457 4.8787694 1.8715928 6
0.68512487 0.51627862 -0.014974165 100
5.5866427 4.2098374 1.8743675 3
0.73194134 0.54378587 -0.24432518 8
10.849427 8.0604343 0.23592164 23
0.59911919 0.44510743 -0.17231251 31
0.76954877 0.57172579 0.050242517 2
0.69183356 0.51398832 -0.1675303 17
10.832178 8.0476198 1.1806117 3
1.0877637 0.8081392 -0.21462809 1
10.816408 8.035903 1.6544982 4
1.1616325 0.86301905 -0.1776855 8
0.85625714 0.63614458 0.16894922 1
0.74848068 0.55607349 -0.081577778 23
7.8654695 5.8435435 1.9046553 4
0.76153266 0.56577033 -0.049719159 100
6.5120969 4.8380737 1.8729424 5
0.68541282 0.50921816 -0.014904355 100
5.5841541 4.1486712 1.8640147 3
0.71643412 0.53226495 -0.2391488 11
10.841401 8.054471 0.2357471 24
0.57096213 0.42418852 -0.16421427 35
0.78878748 0.58601892 0.051498581 1
0.67607421 0.50228012 -0.16371411 19
10.972919 8.1521807 1.1959511 3
1.0687357 0.79400265 -0.21087366 1
10.797286 8.021697 1.6515733 2
1.1377306 0.84526145 -0.17402942 2
0.8705281 0.64674699 0.17176504 3
0.7516793 0.55844992 -0.081926398 23
7.8575897 5.8376894 1.9027473 6
0.75832617 0.56338811 -0.049509816 100
6.5339966 4.8543439 1.8792411 5
0.68059731 0.50564051 -0.014799641 100
5.5996614 4.160192 1.8691912 3
0.75442457 0.55235755 -0.25053683 5
10.895754 7.977407 0.2357122 19
0.56762016 0.41558731 -0.16241466 36
0.77352136 0.56633943 0.050242517 2
0.66055548 0.48363063 -0.1591347 22
1.051939 0.77018493 -0.2064935 1
10.856228 7.9484677 1.6520609 4
0.71435195 0.52301812 -0.10870746 5
0.86864656 0.63598603 0.17051357 10
0.76359755 0.55907363 -0.082797952 100
7.8981528 5.782691 1.9027473 6
0.69616926 0.50970548 -0.045218267 13
6.5551481 4.7994003 1.8756419 5
0.69540501 0.50914592 -0.015043974 100
5.6410384 4.1301279 1.8733323 3
0.75754201 0.55464 -0.2515721 5
0.56762016 0.41558731 -0.16241466 36
0.77029836 0.56397969 0.050033174 4
0.647883 0.47435233 -0.15608175 24
0.85111427 0.62314963 -0.16707201 1
10.859431 7.9508133 1.6525483 2
0.6871233 0.50308245 -0.1045639 21
0.8527081 0.62431657 0.16738488 8
0.75716722 0.55436563 -0.082100712 22
7.9013209 5.7850108 1.9035106 6
0.70422679 0.51560485 -0.045741625 27
6.5582929 4.801703 1.8765417 5
0.69217807 0.50678331 -0.014974165 100
5.5911589 4.0936084 1.8567678 3
0.68306279 0.49282166 -0.2256902 17
0.57682908 0.41617531 -0.16421427 35
0.77421689 0.55858827 0.050033174 4
0.6384418 0.46062815 -0.15302882 26
0.6920445 0.49930188 -0.13515937 12
10.930772 7.8864217 1.6549857 2
0.86505562 0.62412733 0.16894922 21
0.76748198 0.55372912 -0.082797952 100
7.9526601 5.7377496 1.9061818 6
0.68189394 0.49197838 -0.044066876 25
6.6090388 4.768343 1.8814906 4
0.69245583 0.49959862 -0.014904355 100
0.63606304 0.4589119 -0.21016106 24
9.5841074 6.9148197 0.20628744 0
0.56576657 0.40819386 -0.16106495 37
0.76449871 0.55157673 0.049405143 5
0.62570477 0.45143855 -0.14997587 28
0.66320932 0.47849762 -0.12952773 100
10.917893 7.87713 1.6530358 2
0.66003186 0.47620514 -0.099932864 100
0.86505562 0.62412733 0.16894922 46
0.74809295 0.53974015 -0.080706216 20
7.9510679 5.7366009 1.9058002 6
0.70133036 0.50600153 -0.04532294 26
6.5948157 4.758081 1.8774415 4
0.69083416 0.49842861 -0.014869451 100
5.6979342 4.1109915 1.8826498 3
0.62980425 0.44774404 -0.20705524 26
9.6191101 6.8384724 0.20600821 0
0.5686025 0.40423417 -0.16106495 37
0.77809769 0.55316967 0.050033174 2
0.64164197 0.4561598 -0.15302882 26
0.66975361 0.47614509 -0.13015348 22
10.979091 7.8053184 1.6540108 2
0.67790145 0.48193756 -0.10212651 100
0.87422168 0.62150669 0.16988783 72
0.71449423 0.50795233 -0.076697052 100
7.9909229 5.6809525 1.9058002 6
0.68693978 0.48836318 -0.044171546 27
6.6374021 4.7186999 1.8801409 4
0.70407581 0.50054562 -0.015078879 100
0.6345278 0.45110214 -0.20860815 25
9.6386671 6.8523765 0.20642707 0
0.55907285 0.39745927 -0.15836555 38
0.77484202 0.55085516 0.049823832 2
0.64804238 0.46071002 -0.15455529 25
0.65043384 0.46241012 -0.12639906 20
10.966147 7.7961164 1.6520609 2
0.6698119 0.47618651 -0.10090782 28
0.8726117 0.6203621 0.16957496 43
0.68688875 0.48832691 -0.073733762 100
8.0021238 5.6889153 1.9084716 6
0.69182324 0.49183494 -0.044485562 23
6.6262841 4.7107959 1.8769916 4
0.70570558 0.50170428 -0.015113784 100
0.64399076 0.45109469 -0.2106787 24
9.3423214 6.5439939 0.19909705 0
0.56343013 0.39466459 -0.15881544 38
0.78194052 0.54772407 0.050033174 2
0.64481091 0.45166922 -0.15302882 26
0.66011792 0.46239126 -0.12765053 23
11.033315 7.7284803 1.6540108 2
0.67637175 0.47377655 -0.10139529 37
0.87368548 0.61198843 0.16894922 12
0.68375367 0.47894734 -0.073036514 100
8.0416441 5.6329117 1.9084716 6
0.69851172 0.4892849 -0.044694908 25
6.6637983 4.6677752 1.8783413 4
0.70100164 0.49102899 -0.01493926 100
0.63607931 0.44555297 -0.20809051 25
0.56981462 0.39913672 -0.16061506 37
0.78194052 0.54772407 0.050033174 2
0.64159489 0.44941649 -0.15226558 27
0.82735831 0.57953775 0.088375926 20
0.66982555 0.46919113 -0.12952773 28
11.030063 7.7262025 1.6535232 2
0.66824228 0.46808213 -0.1001766 34
0.68375367 0.47894734 -0.073036514 87
8.0529003 5.6407962 1.9111429 4
0.70341933 0.49272248 -0.045008924 23
6.6653943 4.6688933 1.8787912 4
0.69608808 0.48758721 -0.014834546 100
0.64871424 0.44768509 -0.21119635 24
0.57098329 0.3940421 -0.16016515 37
0.78574532 0.54225183 0.050033174 2
0.64794844 0.44715661 -0.15302882 26
0.82318497 0.56808937 0.087504365 20
0.66983312 0.4622595 -0.128902 35
11.175225 7.7121506 1.6671727 2
0.67966282 0.46904308 -0.10139529 32
10.252349 7.075263 1.9729515 2
0.68708068 0.47416222 -0.073036514 100
8.0888519 5.5822091 1.9103796 4
0.71177346 0.49120298 -0.04532294 25
6.6962228 4.62114 1.8783413 4
0.70770425 0.48839477 -0.01500907 100
0.6503042 0.44878235 -0.21171398 24
9.3334665 6.4411321 0.19794519 57
0.57419109 0.39625582 -0.16106495 37
0.79232055 0.54678947 0.050451864 2
0.65118009 0.44938681 -0.15379205 26
0.82154518 0.56695771 0.087330051 17
0.66170412 0.45664954 -0.12733765 26
0.89205748 0.61561906 0.13308132 1
0.68456423 0.47242561 -0.10212651 29
10.27511 7.090971 1.9773316 2
0.68708068 0.47416222 -0.073036514 87
8.0888519 5.5822091 1.9103796 4
0.70848584 0.48893416 -0.045113593 21
6.6994305 4.6233535 1.8792411 4
0.72251666 0.49861699 -0.015323213 100
0.63425016 0.43119779 -0.20550232 100
0.56727403 0.38566378 -0.15836555 38
0.78951174 0.53675312 0.050033174 2
0.64456004 0.43820703 -0.15150234 27
0.8254832 0.56120843 0.087330051 17
0.65670794 0.44646585 -0.12577331 23
11.230435 7.6350617 1.6674163 2
0.69933718 0.47544751 -0.10383268 34
10.334166 7.0257287 1.9792088 2
0.69696486 0.47383469 -0.073733762 100
8.1292496 5.5267067 1.9107612 4
0.70692682 0.48060736 -0.044799577 21
6.7347674 4.5786619 1.8801409 3
0.72597998 0.49356076 -0.015323213 100
0.65022624 0.44205922 -0.2106787 10
0.57049716 0.38785505 -0.15926534 38
0.78620833 0.53450727 0.049823832 2
0.6413129 0.43599942 -0.1507391 28
0.83701694 0.56904972 0.088550232 15
0.66324234 0.45090827 -0.12702478 22
11.230435 7.6350617 1.6674163 2
0.68620408 0.46651891 -0.10188277 32
10.343967 7.032392 1.981086 2
0.69861251 0.47495484 -0.073908068 41
8.1308737 5.5278106 1.9111429 4
0.70527512 0.47948447 -0.044694908 20
6.7250981 4.5720878 1.8774415 3
0.71936518 0.48906362 -0.015183593 100
0.64206046 0.4299843 -0.20705524 9
3.7317777 2.4991508 0.078396209 0
0.57157177 0.38277844 -0.15881544 38
0.78992075 0.52900553 0.049823832 2
0.64107859 0.42932677 -0.14997587 28
0.82938105 0.55543184 0.087330051 20
0.66965675 0.44846538 -0.12765053 21
0.8890202 0.5953719 0.13137515 47
0.692743 0.46392614 -0.10237025 31
10.399375 6.9644036 1.9823376 2
0.70025587 0.46895745 -0.073733762 100
8.1790533 5.4774666 1.9134326 4
0.71026486 0.47566041 -0.044799577 21
6.7795215 4.5402079 1.8837402 2
0.70946974 0.47512794 -0.014904355 100
0.64045531 0.42890936 -0.2065376 9
3.7351007 2.5013762 0.078466021 0
0.58452529 0.39145333 -0.16241466 36
0.78992075 0.52900553 0.049823832 2
0.64434111 0.43151164 -0.1507391 28
0.81282651 0.54434538 0.085586943 31
0.66637409 0.44626704 -0.12702478 22
0.88572145 0.59316272 0.13088767 60
0.68614548 0.45950779 -0.10139529 28
10.386245 6.9556103 1.9798346 2
0.69860041 0.46784881 -0.073559448 21
8.1790533 5.4774666 1.9134326 4
0.72520036 0.48566261 -0.045741625 18
6.7698064 4.5337019 1.8810407 3
0.73273104 0.49070591 -0.015393022 100
0.64827186 0.42761889 -0.20809051 100
3.7457955 2.470835 0.078326397 0
0.57911026 0.38199791 -0.16016515 37
0.65389317 0.4313269 -0.15226558 27
0.81494379 0.53756052 0.085412629 43
0.67277128 0.44377941 -0.12765053 22
0.87824142 0.57931346 0.1291815 33
0.69927901 0.4612647 -0.10285772 28
10.45104 6.8938084 1.9829633 2
0.70184952 0.46296027 -0.073559448 63
8.2203712 5.4223952 1.9141959 4
0.72023714 0.47508925 -0.045218267 15
6.8110528 4.4927673 1.8837402 2
0.73613894 0.48557857 -0.015393022 100
0.65310973 0.43081009 -0.20964342 100
3.7641571 2.4829471 0.078710355 0
0.57097673 0.37663278 -0.15791564 38
0.80026346 0.52787697 0.050242517 2
0.66700381 0.43997505 -0.15531853 25
0.83490157 0.55072528 0.087504365 25
0.67936707 0.44813019 -0.128902 20
0.88984084 0.58696479 0.13088767 6
0.69927901 0.4612647 -0.10285772 100
10.487317 6.917738 1.9898463 2
0.71515477 0.47173679 -0.074953936 19
8.223649 5.4245572 1.9149591 4
0.7302404 0.48168772 -0.045846298 16
6.7947855 4.4820371 1.8792411 2
0.74281591 0.4899829 -0.015532642 100
0.66096139 0.42939737 -0.21119635 100
3.7696612 2.4489822 0.078466021 0
0.57849467 0.3758224 -0.15926534 38
0.65030313 0.42247316 -0.1507391 28
0.83872598 0.54488319 0.087504365 30
0.69076151 0.4487572 -0.13046634 19
11.31296 7.3495297 1.6564481 2
0.69082963 0.44880146 -0.10115156 100
10.515478 6.8314409 1.986092 2
0.71675986 0.46564719 -0.07477963 19
8.2679043 5.3712916 1.9164855 4
0.7302357 0.47440183 -0.045636956 17
6.8357153 4.4408617 1.8819405 2
0.73615718 0.47824875 -0.015323213 100
0.65124136 0.42308271 -0.20809051 13
3.7881072 2.4609656 0.078849971 0
0.57032382 0.37051415 -0.15701583 39
0.65030313 0.42247316 -0.1507391 28
0.83371371 0.54162693 0.086981431 34
0.69407451 0.45090953 -0.13109209 14
11.311296 7.3484483 1.6562043 2
0.70747614 0.45961595 -0.10358894 100
10.538669 6.8465071 1.9904721 2
0.7134183 0.46347633 -0.074431002 19
8.2843676 5.3819871 1.9203017 3
0.73358542 0.476578 -0.045846298 15
6.852057 4.451478 1.8864396 2
0.74118781 0.48151696 -0.015427927 100
0.6524061 0.41771257 -0.20757288 16
3.7976091 2.4314749 0.078710355 0
0.58589798 0.37512979 -0.16061506 37
0.64647716 0.4139165 -0.14921263 28
0.83225375 0.53286266 0.086458497 69
0.6970498 0.44629636 -0.13109209 15
11.373158 7.2818308 1.6581542 2
0.70382172 0.45063218 -0.10261399 100
10.580517 6.7743316 1.9898463 2
0.7164765 0.4587346 -0.074431002 19
8.3099594 5.3205738 1.918012 3
0.74009407 0.47385609 -0.046055641 15
6.871582 4.3996315 1.8837402 2
0.7409969 0.47443414 -0.015358117 100
0.65565997 0.41979593 -0.20860815 23
3.794241 2.4293184 0.078640543 0
0.58589798 0.37512979 -0.16061506 37
0.79728317 0.51047224 0.049614485 2
0.67293149 0.43085426 -0.15531853 25
0.83728755 0.53608561 0.086981431 18
0.68374097 0.43777519 -0.12858912 16
11.369814 7.2796898 1.6576668 2
0.70382172 0.45063218 -0.10261399 100
10.590499 6.7807221 1.9917237 2
0.71983236 0.46088323 -0.07477963 19
8.306653 5.3184566 1.9172488 3
0.735048 0.47062528 -0.045741625 16
6.8847117 4.4080377 1.8873394 1
0.74436504 0.47659066 -0.015427927 100
0.65537846 0.4130334 -0.20757288 16
3.8199861 2.4074364 0.078815065 0
0.58527005 0.36884961 -0.15971525 37
0.804295 0.50688374 0.049823832 2
0.68264103 0.43021488 -0.15684499 24
0.83941662 0.52901816 0.086807117 16
0.6968832 0.43919057 -0.13046634 15
11.414897 7.1939101 1.6566919 2
0.71542531 0.45087621 -0.10383268 100
10.652119 6.713191 1.9942266 2
0.72311193 0.45572048 -0.07477963 19
8.341176 5.2567859 1.9164855 1
0.74008656 0.46641827 -0.045846298 15
6.9160786 4.3586593 1.8873394 1
0.75621516 0.47658283 -0.015602452 100
0.66355026 0.41818345 -0.21016106 11
3.8233697 2.4095688 0.078884877 0
0.60010785 0.37820071 -0.16376437 35
0.79753619 0.50262421 0.049405143 2
0.68264103 0.43021488 -0.15684499 24
0.83941662 0.52901816 0.086807117 19
0.70189673 0.44235021 -0.13140495 100
11.424973 7.2002602 1.6581542 2
0.70366955 0.44346747 -0.10212651 100
10.642092 6.706872 1.9923494 2
0.72985423 0.45996961 -0.07547687 18
8.3511419 5.2630668 1.9187752 1
0.74515563 0.4696129 -0.046160314 16
6.9127812 4.3565812 1.8864396 1
0.74944812 0.47231811 -0.015462833 100
0.65489203 0.40652514 -0.2065376 100
3.8464782 2.3877068 0.079024494 0
0.61591375 0.38232931 -0.16736358 33
0.80772656 0.50139737 0.049823832 2
0.6822176 0.42348751 -0.15608175 24
0.84469086 0.52434301 0.086981431 18
0.70824808 0.43964598 -0.1320307 100
11.466972 7.1181393 1.6571794 2
0.72522402 0.45018381 -0.10480764 100
10.721063 6.6551147 1.9986067 2
0.73466098 0.45604181 -0.075651184 18
8.393445 5.2102423 1.9203017 1
0.74833494 0.46452993 -0.046160314 16
6.942275 4.3094268 1.8864396 1
0.75264573 0.46720588 -0.015462833 100
0.64996803 0.40346855 -0.20498468 27
3.8430803 2.3855975 0.078954689 0
0.62253648 0.38644037 -0.1691632 32
0.6822176 0.42348751 -0.15608175 24
0.84976918 0.52749538 0.087504365 15
0.70489144 0.43756235 -0.13140495 14
11.490584 7.1327963 1.6605917 2
0.73197031 0.45437157 -0.10578259 100
10.70428 6.6446967 1.995478 2
0.72619712 0.45078787 -0.07477963 19
8.393445 5.2102423 1.9203017 1
0.75681943 0.46979672 -0.046683673 14
6.9555206 4.3176489 1.8900387 1
0.75094676 0.46615124 -0.015427927 100
0.67097288 0.40988517 -0.2106787 24
3.8668787 2.362206 0.079094306 0
0.62195981 0.37994397 -0.16826339 33
0.70198429 0.42882946 -0.15989794 22
0.84672105 0.51724654 0.086807117 13
0.70294732 0.42941776 -0.13046634 14
11.524391 7.040041 1.6581542 2
0.741979 0.45326149 -0.10675754 100
10.751554 6.5679288 1.995478 2
0.734505 0.44869578 -0.075302564 18
8.4372149 5.1541409 1.9218282 1
0.76186621 0.46541023 -0.046788346 15
6.9895644 4.2697978 1.8909385 1
0.76450205 0.46702042 -0.015637357 100
0.65448707 0.39981428 -0.20550232 27
3.8771176 2.3684607 0.079303734 0
0.6319378 0.38603932 -0.1709628 31
0.71036118 0.43394676 -0.16180603 20
0.85692251 0.52347839 0.087852992 10
0.71474737 0.4366262 -0.13265643 15
11.527779 7.0421104 1.6586418 2
0.7233448 0.44187823 -0.10407642 100
10.795382 6.5947032 2.0036125 2
0.74300623 0.45388901 -0.076174118 100
8.4405651 5.156188 1.9225914 1
0.74993545 0.45812193 -0.046055641 12
6.9895644 4.2697978 1.8909385 1
0.76962149 0.47014779 -0.015742071 100
0.67216247 0.40419537 -0.21016106 24
3.893558 2.3413358 0.079303734 0
0.66133815 0.39768633 -0.17816123 27
0.71000838 0.42695349 -0.16104279 21
0.84689659 0.50926924 0.086458497 12
0.70762092 0.4255178 -0.13077921 16
11.586868 6.9675984 1.6601042 2
0.73832047 0.44397852 -0.10578259 100
10.783602 6.4845657 1.9929751 2
0.74444938 0.44766408 -0.075999811 17
8.472991 5.0951133 1.9218282 1
0.76852006 0.46213862 -0.046997689 19
7.0058422 4.2128639 1.8873394 1
0.76603013 0.46064132 -0.015602452 100
0.68209594 0.41016871 -0.21326689 23
3.893558 2.3413358 0.079303734 0
0.6947391 0.41777149 -0.18715927 22
0.86265951 0.51874804 0.052754644 2
0.70496094 0.42391828 -0.15989794 44
0.85714126 0.51542974 0.087504365 10
0.72793543 0.43773362 -0.13453364 18
11.600477 6.9757824 1.6620541 2
0.72981447 0.43886358 -0.1045639 100
10.797144 6.4927096 1.995478 2
0.74957174 0.45074433 -0.076522745 16
8.4830866 5.1011834 1.9241179 1
0.76338518 0.45905086 -0.046683673 100
7.0091825 4.2148724 1.8882391 1
0.75746155 0.45548874 -0.015427927 100
0.69152129 0.40945342 -0.21533744 22
3.9162874 2.3188546 0.07944335 0
0.7025972 0.41601151 -0.18850899 22
0.71289814 0.42211077 -0.16104279 85
0.85548663 0.50653815 0.086981431 10
0.72069949 0.42673001 -0.13265643 16
11.487127 6.801589 1.6391426 2
0.74132538 0.4389427 -0.10578259 100
10.851287 6.4251046 1.9973552 2
0.74062169 0.438526 -0.075302564 18
8.5108547 5.0393224 1.9225914 1
0.78539664 0.46503752 -0.047835063 100
7.0444169 4.1710367 1.8900387 1
0.77430987 0.458473 -0.015707165 80
0.69484591 0.41142195 -0.21637273 21
3.9162874 2.3188546 0.07944335 0
0.70092034 0.41501865 -0.18805908 22
0.71458745 0.42311102 -0.16142441 84
0.72749853 0.43075576 -0.1339079 16
11.333396 6.7105641 1.6172062 2
0.74986601 0.44399965 -0.10700128 100
10.82749 6.4110146 1.9929751 2
0.74747926 0.44258645 -0.075999811 88
8.5243692 5.0473242 1.9256444 1
0.76649213 0.45384407 -0.046683673 100
7.0511246 4.1750083 1.8918383 1
0.77258921 0.45745414 -0.015672261 77
0.69777215 0.40643924 -0.21637273 87
3.9362361 2.292784 0.079513162 0
0.69208485 0.40312648 -0.18490976 96
0.8905282 0.51871604 0.054010708 1
0.72268617 0.42095119 -0.16256927 60
0.72373462 0.4215619 -0.13265643 16
11.370833 6.6232982 1.6157438 2
0.74787802 0.43562496 -0.10627007 100
10.890158 6.3433137 1.9961038 2
0.75579208 0.44023475 -0.076522745 16
8.5568762 4.98422 1.9248811 1
0.77489763 0.45136338 -0.046997689 100
7.0808191 4.124445 1.8918383 1
0.78621048 0.45795289 -0.015881689 68
0.69109493 0.40254986 -0.21430217 11
3.9535155 2.3028488 0.079862215 0
0.70218825 0.40901154 -0.18760918 100
0.88707656 0.51670551 0.053801361 1
0.72607911 0.4229275 -0.16333251 59
0.73056233 0.4255389 -0.1339079 18
11.387987 6.6332893 1.6181811 2
0.74787802 0.43562496 -0.10627007 100
10.931125 6.3671756 2.0036125 2
0.76956505 0.44825724 -0.077917233 14
8.5500898 4.9802675 1.9233546 1
0.78352678 0.4563897 -0.047521047 100
7.0808191 4.124445 1.8918383 1
0.78621048 0.45795289 -0.015881689 61
0.68376362 0.39207071 -0.21119635 100
3.9829767 2.2838426 0.080141447 0
0.70326549 0.40325311 -0.18715927 100
0.88364255 0.5066815 0.053382676 1
0.72383159 0.41504574 -0.16218765 82
0.74372381 0.42645195 -0.13578512 100
11.42943 6.5536461 1.6176937 2
0.75254798 0.43151173 -0.10651381 100
10.950219 6.2788663 1.9992324 2
0.76395631 0.43805328 -0.077045679 16
8.6008224 4.9317198 1.9271709 1
0.78834778 0.45203936 -0.047625721 100
7.1323967 4.0897231 1.898137 1
0.77716619 0.44562784 -0.015637357 63
0.68208772 0.39110973 -0.2106787 73
4.0037937 2.295779 0.080560312 0
0.71340877 0.40906924 -0.18985869 100
0.89750361 0.51462942 0.054220051 1
0.73064417 0.41895205 -0.16371411 58
11.512926 6.6015224 1.1610888 3
0.74201018 0.42546934 -0.13547225 18
11.463872 6.5733948 1.6225685 2
0.76460254 0.43842381 -0.10821997 100
10.998201 6.3063793 2.0079927 2
0.75531429 0.43309793 -0.076174118 17
8.5974169 4.9297667 1.9264076 1
0.78834778 0.45203936 -0.047625721 100
7.1323967 4.0897231 1.898137 1
0.78583992 0.45060137 -0.015811881 52
0.68150347 0.38432097 -0.20964342 25
0.71462023 0.40299654 -0.18940879 100
0.73704356 0.41564173 -0.16447735 76
0.74159449 0.41820812 -0.13484651 18
11.500241 6.485343 1.621106 2
0.75561649 0.4261156 -0.10651381 100
11.10499 6.2624483 2.0192561 2
0.77054232 0.4345327 -0.077394299 15
8.6222124 4.8623328 1.9241179 1
0.78112411 0.44050011 -0.046997689 100
7.1750588 4.0462384 1.9017363 1
0.79601151 0.44889557 -0.015951499 43
0.70506167 0.39760613 -0.21689036 100
0.70952797 0.40012482 -0.18805908 100
0.74730402 0.42142791 -0.16676706 70
0.74159449 0.41820812 -0.13484651 18
11.500241 6.485343 1.621106 2
0.76426202 0.43099105 -0.1077325 85
0.76360047 0.43061802 -0.076697052 16
8.6290522 4.8661904 1.9256444 1
0.78460348 0.44246227 -0.047207031 96
7.1818485 4.0500674 1.9035358 1
0.79775333 0.44987786 -0.015986403 42
0.7093721 0.39385903 -0.217408 100
0.70875853 0.39351839 -0.18715927 100
0.73978394 0.41074434 -0.16447735 100
0.75298697 0.41807497 -0.13641085 100
11.549943 6.4127827 1.6220809 2
0.76016152 0.42205843 -0.10675754 100
0.78211683 0.43424851 -0.078265861 14
8.6714354 4.8145719 1.9279341 1
0.78926688 0.43821838 -0.047311705 94
7.2153664 4.0061307 1.9053354 1
0.791978 0.43972364 -0.015811881 42
0.69923824 0.3882325 -0.21430217 100
0.71727729 0.39824817 -0.18940879 100
0.73463464 0.40788534 -0.16333251 100
0.7581681 0.42095163 -0.13734946 100
11.560356 6.4185643 1.6235434 2
0.75669044 0.42013121 -0.10627007 72
0.778633 0.43231419 -0.077917233 14
8.7023306 4.8317261 1.9348032 1
0.80149007 0.44500494 -0.04804441 94
7.2187738 4.0080223 1.9062352 1
0.79897118 0.44360641 -0.015951499 37
0.69175863 0.37778577 -0.21119635 100
0.72175038 0.39416501 -0.18985869 42
0.7460795 0.40745172 -0.16524059 92
0.75068629 0.40996757 -0.13547225 20
11.608368 6.3396049 1.6240308 2
0.77180052 0.42149857 -0.10797624 100
0.77638626 0.42400295 -0.077394299 15
8.7461882 4.7765007 1.9370929 1
0.81158882 0.44322789 -0.048463095 86
7.2568412 3.9631329 1.9089346 1
0.79853857 0.43610084 -0.015881689 29
0.6951496 0.37963769 -0.21223162 95
0.72175038 0.39416501 -0.18985869 42
0.75124866 0.41027471 -0.16638544 53
11.682515 6.3800983 1.164575 3
0.75068629 0.40996757 -0.13547225 21
11.611853 6.3415079 1.6245184 2
0.78051162 0.42625588 -0.10919493 100
0.77638626 0.42400295 -0.077394299 15
8.6979437 4.7501531 1.9264076 1
0.80107147 0.43748412 -0.047835063 85
7.2602615 3.9650011 1.9098345 1
0.70799446 0.38025993 -0.21533744 89
0.71761739 0.38542837 -0.18805908 67
11.711445 6.2901525 0.69669622 1
0.75755376 0.40687793 -0.16714868 69
11.695177 6.281415 1.1614374 3
0.75701058 0.4065862 -0.13609798 20
11.662836 6.2640452 1.6254933 2
0.7712267 0.41422161 -0.10748876 100
0.80214554 0.43082795 -0.079660349 12
8.7931576 4.7227569 1.9401459 1
0.80058706 0.42999089 -0.047625721 89
7.3152342 3.9289718 1.9170328 1
0.80508697 0.43240777 -0.015951499 21
0.70799446 0.38025993 -0.21533744 89
4.2139344 2.2632809 0.083492309 0
0.72448456 0.38911667 -0.18985869 100
11.69385 6.2807021 0.6956495 1
0.75582415 0.405949 -0.16676706 52
11.737303 6.3040404 1.1656209 3
0.76745212 0.41219428 -0.1379752 20
11.662836 6.2640452 1.6254933 2
0.7712267 0.41422161 -0.10748876 93
0.79161412 0.42517158 -0.078614481 13
8.7862396 4.7190409 1.9386194 1
0.79882753 0.42904586 -0.047521047 78
7.2946324 3.917907 1.9116341 1
0.71234018 0.37621015 -0.21585508 100
4.2048769 2.2207332 0.083003648 0
0.73752254 0.3895098 -0.19255811 100
0.74475163 0.39332771 -0.16371411 78
11.735221 6.1977539 1.1610888 3
0.76681757 0.40498143 -0.13734946 20
11.723837 6.1917415 1.6279306 2
0.77936566 0.41160852 -0.10821997 94
0.79456306 0.41963473 -0.078614481 13
8.8293867 4.6630878 1.9409091 1
0.81769812 0.43185312 -0.048463095 75
7.3080211 3.8596051 1.9080348 1
0.79747665 0.42117351 -0.015742071 13
0.70721543 0.3735036 -0.21430217 100
4.2154865 2.2263362 0.083213076 0
0.73579937 0.38859972 -0.1921082 80
0.74648768 0.39424455 -0.16409573 77
11.735221 6.1977539 1.1610888 3
0.77555126 0.40959397 -0.13891381 100
11.702772 6.1806169 1.6250058 2
0.78814232 0.41624373 -0.10943867 82
0.78927773 0.41684338 -0.078091547 14
8.8641071 4.6814251 1.9485414 1
0.81769812 0.43185312 -0.048463095 53
7.3080211 3.8596051 1.9080348 1
0.71501398 0.37110317 -0.21585508 100
0.729913 0.37883598 -0.18985869 64
0.74928969 0.38889274 -0.16409573 96
11.782806 6.1154561 1.1614374 3
0.76618928 0.39766392 -0.13672373 100
11.750224 6.0985451 1.6254933 2
0.78581494 0.40784994 -0.10870746 92
0.7993139 0.41485611 -0.078788795 13
8.8694983 4.603405 1.9424356 1
0.81190383 0.42139047 -0.047939736 48
7.3008595 3.7892573 1.8990368 1
0.71672869 0.37199309 -0.21637273 100
0.73510194 0.38152912 -0.19120839 20
0.76497251 0.39703238 -0.1675303 100
11.814638 6.1319771 1.164575 3
0.77846235 0.40403381 -0.13891381 100
11.743176 6.0948873 1.6245184 2
0.78757685 0.40876439 -0.1089512 78
0.7993139 0.41485611 -0.078788795 13
8.8973789 4.6178751 1.9485414 1
0.80304027 0.41679013 -0.047416378 26
7.3700457 3.825166 1.9170328 1
0.71580279 0.36534941 -0.21533744 100
4.1998515 2.1436257 0.082305551 0
0.73941761 0.37740254 -0.1916583 20
0.7694059 0.39270872 -0.16791192 84
11.845455 6.0459814 1.1635292 3
0.77415669 0.39513355 -0.13766234 100
11.823289 6.0346675 1.6298805 2
0.78857285 0.40249166 -0.10870746 74
11.812927 6.0293789 2.1006019 2
0.8145414 0.41574612 -0.080008969 11
8.8726492 4.5286455 1.9363297 1
0.81653225 0.41676226 -0.04804441 11
7.3959117 3.7749114 1.9170328 1
0.72268546 0.36886239 -0.217408 85
4.0858603 2.0854442 0.080071643 0
0.74288905 0.37917438 -0.19255811 19
0.7729032 0.39449376 -0.16867515 81
11.845455 6.0459814 1.1635292 3
0.77943504 0.39782766 -0.13860093 100
11.830361 6.0382771 1.6308556 2
0.79387718 0.40519899 -0.10943867 66
11.883305 6.0653 2.1131167 2
0.80744302 0.41212305 -0.079311728 12
8.8831406 4.5340009 1.9386194 1
0.81119543 0.41403833 -0.047730394 12
7.5694842 3.8635037 1.9620231 1
0.72357959 0.36281565 -0.21689036 100
4.0649276 2.0382268 0.079373546 0
0.75255138 0.37734264 -0.19435771 56
0.77044135 0.38631299 -0.1675303 85
11.891978 5.9628491 1.1638778 3
0.78755933 0.39489624 -0.13953954 100
11.834228 5.9338918 1.6254933 2
0.80030537 0.40128735 -0.10992615 42
11.926403 5.9801102 2.1131167 2
0.81749558 0.4099068 -0.080008969 11
8.8732376 4.4491992 1.9294605 1
0.82484978 0.41359434 -0.048358422 11
0.73221415 0.36714518 -0.21947855 100
4.0649276 2.0382268 0.079373546 0
0.75255138 0.37734264 -0.19435771 100
0.78272629 0.39247286 -0.17020163 61
11.91335 5.9735656 1.1659695 3
0.77873015 0.39046913 -0.1379752 100
11.851973 5.9427896 1.6279306 2
0.8180505 0.41018507 -0.11236353 39
0.82283866 0.41258591 -0.080531903 11
0.80521053 0.40374684 -0.047207031 13
0.72609484 0.3577553 -0.21689036 100
4.0934081 2.0168693 0.079652786 0
0.74992317 0.36949581 -0.19300801 19
0.78192496 0.38526347 -0.16943839 31
0.78852504 0.38851538 -0.13922668 100
0.80664873 0.39744514 -0.11041363 41
0.83463514 0.41123435 -0.081403464 9
0.80442637 0.39635015 -0.046997689 14
0.74169117 0.3654398 -0.22154911 100
4.0934081 2.0168693 0.079652786 0
0.746427 0.36777321 -0.1921082 20
0.77488065 0.38179263 -0.16791192 16
0.79029697 0.38938844 -0.13953954 100
0.80664873 0.39744514 -0.11041363 51
0.83820957 0.41299555 -0.081752084 9
0.80263478 0.39546743 -0.046893016 14
0.73372924 0.35533074 -0.21844327 100
4.1142406 1.9924463 0.079792403 0
0.75943643 0.36778024 -0.19480762 18
0.77392751 0.37479797 -0.16714868 34
0.80181849 0.38830504 -0.14110389 100
0.81648183 0.39540619 -0.11138858 42
0.83203542 0.40293849 -0.08088053 10
0.81609339 0.39521807 -0.047521047 13
0.73372924 0.35533074 -0.21844327 100
4.1070414 1.9889599 0.079652786 0
0.76645201 0.37117773 -0.19660722 17
0.77569449 0.37565368 -0.1675303 51
0.8000406 0.38744405 -0.14079101 100
0.81826842 0.39627141 -0.11163232 41
0.82844907 0.4012017 -0.080531903 11
0.82328361 0.39870018 -0.047939736 12
0.74846584 0.35587808 -0.22206675 100
4.1067214 1.9526504 0.079373546 0
0.76380867 0.36317325 -0.19525751 18
0.79077399 0.37599462 -0.17020163 61
0.79565668 0.37831622 -0.13953954 100
0.82287586 0.39125833 -0.11187606 37
0.84389418 0.40125203 -0.081752084 9
0.81890059 0.38936818 -0.047521047 13
0.74323183 0.35338944 -0.22051382 100
4.1247807 1.9612373 0.079722591 0
0.76204872 0.36233646 -0.19480762 18
0.79077399 0.37599462 -0.17020163 76
0.80279261 0.38170919 -0.14079101 100
0.81749761 0.38870108 -0.11114484 34
0.83489746 0.3969743 -0.08088053 10
0.80807811 0.38422233 -0.046893016 14
0.74730939 0.34927037 -0.22103146 58
4.1340742 1.9321444 0.079652786 0
0.76266962 0.35644931 -0.19435771 18
0.79325026 0.37074178 -0.17020163 46
0.80888569 0.37804931 -0.14141676 82
0.82904941 0.38747326 -0.11236353 30
0.84653682 0.39564633 -0.081752084 9
0.82146496 0.38392848 -0.047521047 13
0.75255978 0.35172427 -0.22258438 75
4.1449437 1.9372245 0.079862215 0
0.77679312 0.36305022 -0.19795693 16
0.79147166 0.36991051 -0.16982001 15
0.82320225 0.38474044 -0.14391971 62
0.82545269 0.38579223 -0.11187606 23
0.84292686 0.39395913 -0.081403464 9
0.82870251 0.38731113 -0.047939736 12
0.75499696 0.34646186 -0.22258438 100
4.1510973 1.9049042 0.079722591 0
0.7863934 0.36086944 -0.19975653 15
0.79403478 0.36437604 -0.16982001 31
0.81689131 0.3748647 -0.14235537 77
0.84255946 0.38664359 -0.11382597 23
0.85652161 0.3930507 -0.082449332 8
0.8495388 0.38984635 -0.048986454 9
0.75499696 0.34646186 -0.22258438 100
4.1474624 1.9032363 0.079652786 0
0.77753758 0.35680559 -0.19750702 17
0.80652523 0.37010777 -0.17249133 41
0.80432373 0.36909753 -0.14016528 97
0.84075522 0.38581565 -0.11358223 28
0.85108912 0.39055777 -0.081926398 9
0.85316932 0.39151236 -0.0491958 9
0.76092005 0.3427695 -0.22361965 100
4.1752343 1.8808059 0.079932019 0
0.77467924 0.34896755 -0.19615732 17
0.80908942 0.36446822 -0.17249133 27
0.81768733 0.3683413 -0.14204249 87
0.8361885 0.37667546 -0.11260727 21
0.85197836 0.38378829 -0.081752084 9
0.81946123 0.36914039 -0.047102362 14
0.7644428 0.34435639 -0.22465493 89
0.77290249 0.34816718 -0.19570741 18
0.80908942 0.36446822 -0.17249133 55
0.82309055 0.37077528 -0.1429811 74
0.83256865 0.37504482 -0.11211979 18
0.8592447 0.38706154 -0.082449332 8
0.84859765 0.38226536 -0.048777111 10
0.76335335 0.33731574 -0.22361965 91
0.78963387 0.34892872 -0.19930664 16
0.79551506 0.35152754 -0.16905677 32
0.82933635 0.36647275 -0.14360684 64
0.82978392 0.36667052 -0.11138858 9
0.8474133 0.3744607 -0.081054844 10
0.85496503 0.37779772 -0.048986454 9
0.76688743 0.33887738 -0.22465493 89
0.79498124 0.35129169 -0.20065634 15
0.81167674 0.35866919 -0.17249133 13
0.8311432 0.36727116 -0.14391971 54
0.83886248 0.37068221 -0.11260727 13
0.84376854 0.37285012 -0.080706216 10
0.94265378 0.4165462 -0.054010708 1
0.77449316 0.33595586 -0.22620785 100
0.78841501 0.34199482 -0.19840683 16
0.82310486 0.3570424 -0.17439942 12
0.81912607 0.35531649 -0.14141676 63
0.84318733 0.36575368 -0.11285101 17
0.85725385 0.37185538 -0.081752084 9
0.77272087 0.33518708 -0.2256902 100
0.7955662 0.34509683 -0.20020644 15
0.82670707 0.35860494 -0.17516266 12
0.83724833 0.36317748 -0.14454545 60
0.85411417 0.37049347 -0.11431345 15
0.86822087 0.3766126 -0.082797952 7
0.96012563 0.4164786 -0.054848082 1
0.78221065 0.33267337 -0.22776076 98
0.79442871 0.3378697 -0.19930664 16
0.82744533 0.35191166 -0.17478104 24
0.83982569 0.35717702 -0.14454545 60
0.83482254 0.35504916 -0.11138858 19
0.88189435 0.37506875 -0.083843827 6
0.93367422 0.3970907 -0.05317333 1
0.77865511 0.33116123 -0.22672549 100
0.80518842 0.34244582 -0.20200604 14
0.81660545 0.34730145 -0.17249133 41
0.84346128 0.35872322 -0.14517118 64
0.8366493 0.35582608 -0.11163232 13
0.87822741 0.37350923 -0.0834952 6
0.87118423 0.37051377 -0.049614485 8
0.77381611 0.32274258 -0.22465493 89
0.7949695 0.3315652 -0.19885673 16
0.82444602 0.34385926 -0.17363618 26
0.84412193 0.35206565 -0.14485832 65
0.84827363 0.35379726 -0.11285101 8
0.87713587 0.3658351 -0.08314658 7
0.85900283 0.35827217 -0.048777111 10
0.78094804 0.32571715 -0.22672549 100
0.79856664 0.33306551 -0.19975653 15
0.83169395 0.34688219 -0.17516266 12
0.83318299 0.34750327 -0.1429811 82
0.85377002 0.35608968 -0.11358223 8
0.87713587 0.3658351 -0.08314658 7
0.90693003 0.3782616 -0.051498581 3
0.79029906 0.32331988 -0.22879604 95
0.79540431 0.32540849 -0.19840683 16
0.83766991 0.34269983 -0.1759259 11
0.8483271 0.34705979 -0.14517118 57
0.84882492 0.34726343 -0.11260727 4
0.91279835 0.37343568 -0.086284183 3
0.7938751 0.32478288 -0.22983131 92
0.80261886 0.32836005 -0.20020644 15
0.83948702 0.34344321 -0.17630751 22
0.85015535 0.34780774 -0.14548405 56
0.84147578 0.34425682 -0.11163232 4
0.88329375 0.36136502 -0.0834952 6
0.79965329 0.32081026 -0.23086658 89
0.80845261 0.32434043 -0.20110624 15
0.836339 0.33552808 -0.17516266 24
0.85433644 0.34274843 -0.14579692 48
0.85301131 0.34221679 -0.11285101 4
0.87833649 0.35237691 -0.082797952 7
0.79965329 0.32081026 -0.23086658 100
0.81387842 0.32651719 -0.20245595 14
0.83816111 0.3362591 -0.17554428 35
0.85983646 0.34495497 -0.14673553 51
0.84379953 0.33852115 -0.11163232 4
0.87093997 0.34940955 -0.082100712 8
0.79833239 0.313667 -0.22983131 92
0.81438035 0.31997228 -0.20200604 14
0.84785491 0.33312455 -0.17707075 21
0.85309011 0.33518144 -0.14517118 35
0.85359073 0.33537814 -0.11260727 4
0.88083553 0.34608272 -0.082797952 7
0.80912066 0.31790572 -0.23293714 84
0.81438035 0.31997228 -0.20200604 14
0.84054583 0.33025277 -0.17554428 11
0.8586058 0.33734858 -0.14610979 6
0.85728592 0.33682999 -0.11309475 4
0.88454431 0.3475399 -0.08314658 7
0.81487143 0.31377929 -0.23397242 81
0.80744654 0.31092024 -0.19975653 15
0.86659187 0.33369508 -0.18050531 8
0.85903871 0.33078662 -0.14579692 27
0.84844381 0.32670686 -0.11163232 4
0.90920115 0.35010245 -0.085238315 4
0.80946302 0.31169671 -0.23241951 85
0.81472087 0.31372133 -0.20155615 14
0.85559916 0.32946217 -0.17821561 10
0.8608821 0.33149645 -0.14610979 6
0.92624867 0.35666689 -0.12186934 1
0.87573361 0.33721524 -0.082100712 8
0.809865 0.30521509 -0.23190187 100
0.82241553 0.30994502 -0.20290585 14
0.85242343 0.32125416 -0.17707075 10
0.86138374 0.32463104 -0.14579692 6
0.90277141 0.34022889 -0.118457 2
0.85948038 0.32391372 -0.080357596 11
0.809865 0.30521509 -0.23190187 87
0.82241553 0.30994502 -0.20290585 14
0.85977191 0.3240236 -0.17859723 19
0.87986839 0.33159739 -0.14892562 5
0.90277141 0.34022889 -0.118457 2
0.88931054 0.33515584 -0.08314658 7
0.82279772 0.30370927 -0.23500769 65
0.82450616 0.30433989 -0.20290585 14
0.8674829 0.32020336 -0.17974207 9
0.86357343 0.31876031 -0.14579692 6
0.87526995 0.32307768 -0.11455718 3
0.91400069 0.33737391 -0.085238315 4
0.82279772 0.30370927 -0.23500769 52
0.83181888 0.30703914 -0.20470546 13
0.86011577 0.31748402 -0.17821561 10
0.88951772 0.32833681 -0.15017709 4
0.96633613 0.35669184 -0.090119042 1
0.82489794 0.29795769 -0.23500769 65
5.4316483 1.9619414 0.1008051 0
0.85227054 0.30784482 -0.20920448 10
0.85307878 0.30813676 -0.17630751 11
0.87320936 0.31540805 -0.1470484 6
0.82671487 0.298614 -0.23552532 25
5.4090791 1.9537892 0.10038624 0
0.85960186 0.31049296 -0.21100409 9
0.89554805 0.32347691 -0.18508473 5
0.84719884 0.3060129 -0.14266823 8
0.82877946 0.29283521 -0.23552532 12
5.4791508 1.9359653 0.10143339 0
0.89482206 0.31617025 -0.21910232 5
0.91629553 0.32375753 -0.1889009 3
0.84558946 0.29877475 -0.14204249 8
0.85792333 0.30313271 -0.24380754 8
5.5734239 1.9692751 0.10317863 0
0.87828535 0.31032726 -0.2150532 7
0.88667792 0.31329265 -0.18279502 7
0.87911505 0.31062043 -0.14767413 5
0.91114503 0.31480005 -0.25830141 1
5.5492349 1.9172572 0.10248053 0
0.91358465 0.31564295 -0.22315145 3
0.85915351 0.296837 -0.17668913 11
0.91113544 0.31479675 -0.15268004 3
0.9001894 0.31101489 -0.25519559 3
5.5870361 1.9303175 0.10317863 0
0.88779801 0.30673367 -0.21685281 6
0.85915351 0.296837 -0.17668913 11
0.88126218 0.30447555 -0.14767413 5
0.84559941 0.28556177 -0.2391488 22
0.86037695 0.2905522 -0.20965438 10
0.91700649 0.3096762 -0.18813767 3
0.86839402 0.29325959 -0.14517118 7
0.84010845 0.28370747 -0.23759589 11
0.86037695 0.2905522 -0.20965438 10
0.92816681 0.31344506 -0.19042738 2
0.87026554 0.29389164 -0.14548405 7
0.87325639 0.28812575 -0.24639574 7
0.85868317 0.28331742 -0.20875458 11
0.9079597 0.29957592 -0.18584797 5
0.85916471 0.28347629 -0.14329398 8
0.8787601 0.28994167 -0.24794865 6
0.8845917 0.2918658 -0.2150532 7
0.87067181 0.28727299 -0.17821561 10
0.85916471 0.28347629 -0.14329398 8
0.86053652 0.27728245 -0.24225463 9
0.90515602 0.29165974 -0.21955223 5
0.88386798 0.28480029 -0.18050531 8
0.8513428 0.27432001 -0.23966643 10
0.88289809 0.28448778 -0.21415341 8
0.88013071 0.28359607 -0.17974207 9
0.87161773 0.27431834 -0.24484281 8
0.86994326 0.27379134 -0.21055418 10
0.86705911 0.27288365 -0.17668913 11
0.88083142 0.2772181 -0.24743101 7
0.87366092 0.27496138 -0.21145399 9
0.91598678 0.2812694 -0.2567485 2
0.89791393 0.27571982 -0.21685281 6
0.88459206 0.27162912 -0.24794865 6
0.87166148 0.2610136 -0.24380754 8
0.88461614 0.26489276 -0.24743101 14
1.0416968 0.31192958 -0.25104538 1
0.88458937 0.25816935 -0.24691337 7
0.88829833 0.2592518 -0.24794865 6
1.223125 0.35697168 -0.24767007 1
1.0257366 0.29160818 -0.28573623 1
1.3540001 0.38493073 -0.2736201 1
1.0406023 0.29583439 -0.28987733 1
1.046366 0.28959304 -0.2909126 1
1.0426422 0.28856245 -0.28987733 1
1.0409006 0.28027192 -0.28884205 1
1.029708 0.27725825 -0.28573623 1
1.0315243 0.27042291 -0.28573623 1
1.0277869 0.26944309 -0.28470096 1
1.0334789 0.26285425 -0.28573623 1
1.0484568 0.26666373 -0.28987733 1
1.0315377 0.25470665 -0.28470096 1
1.0352887 0.25563285 -0.28573623 1
1.0144612 0.24317607 -0.27952456 1
1.0407619 0.24948065 -0.28677151 1
1.0198976 0.23696233 -0.28055984 1
0.97473603 0.22646953 -0.26813653 1
0.94236809 0.21202619 -0.25881904 1
0.91598177 0.20608945 -0.2515721 5
0.66352189 0.13005756 -0.18117332 38
0.815184 0.15978499 -0.22258438 18
1.8402328 -1.1818621 -0.42512244 1
1.8387243 -1.1986493 -0.42664891 1
1.8321456 -1.1943607 -0.42512244 1
1.8235521 -1.2074405 -0.42512244 1
1.8006349 -1.1922662 -0.41977978 1
1.7598872 -1.1825951 -0.41214743 1
1.7827007 -1.1979251 -0.41749009 1
1.754832 -1.1970652 -0.41291067 1
1.8472602 -1.2601155 -0.35416764 1
0.9160462 -0.62488437 -0.29712427 1
1.7353699 -1.1837891 -0.40833125 1
0.92447919 -0.63990104 -0.30126536 1
1.7208149 -1.1911044 -0.40680477 1
0.91812539 -0.63550311 -0.29919481 1
1.6078159 -1.1128893 -0.38009152 1
0.91682786 -0.64411843 -0.30023009 1
1.4200867 -0.99768347 -0.33735031 1
0.92631233 -0.65078169 -0.30333593 1
1.4072353 -0.98865467 -0.33429736 1
0.94062179 -0.67069137 -0.30954757 1
1.4130871 -1.0075731 -0.33735031 1
0.96264309 -0.68639314 -0.31679451 1
1.3939049 -0.99389571 -0.33277088 1
0.97022575 -0.70232636 -0.32093561 1
1.4153829 -1.0245663 -0.33964002 1
0.97648531 -0.70685744 -0.32300618 1
1.4090216 -1.0199615 -0.33811355 1
0.99967968 -0.73406917 -0.33232364 1
1.4273654 -1.0481206 -0.34421942 1
1.015251 -0.74550325 -0.33750004 1
1.4463547 -1.0620646 -0.34879884 1
1.0162182 -0.75718981 -0.33957058 1
1.4483508 -1.0791742 -0.35108855 1
1.0193164 -0.7594983 -0.34060585 1
1.4483508 -1.0791742 -0.35108855 1
1.011174 -0.76391292 -0.33957058 1
1.4411616 -1.0887562 -0.35108855 1
1.0235053 -0.77322894 -0.3437117 1
1.4630923 -1.1053243 -0.35643122 1
1.045541 -0.80169219 -0.35302919 1
1.0516733 -0.80639416 -0.35509974 1
1.262712 -0.98193312 -0.42860433 1
1.5097644 -1.1740505 -0.51246172 9
1.5157109 -1.1786747 -0.30410859 1
1.5105472 -1.1916746 -0.30473435 1
1.4848475 -1.1714001 -0.50676769 53
1.3019937 -1.0271462 -0.38286668 1
1.4334579 -1.1308587 -0.35490474 1
1.5787854 -1.245508 -0.31850058 1
1.4947332 -1.1962227 -0.51297933 52
1.3297856 -1.0642165 -0.39321443 1
1.4224625 -1.1383849 -0.3541415 1
1.5916438 -1.2737794 -0.32288074 1
1.4887 -1.1913943 -0.51090878 48
1.349565 -1.0800458 -0.39906317 1
1.4408563 -1.1531055 -0.3587209 1
1.5916438 -1.2737794 -0.32288074 1
1.4670556 -1.190544 -0.50625002 45
1.3482349 -1.0941187 -0.40086278 1
1.3613254 -1.1047419 -0.34078488 1
1.5829366 -1.2845838 -0.32288074 1
1.4715557 -1.194196 -0.50780296 48
1.3467216 -1.0928907 -0.40041289 1
1.3643743 -1.1072162 -0.34154812 1
1.5277179 -1.2397728 -0.31161746 1
1.4646744 -1.205668 -0.50832063 49
1.3300318 -1.0948349 -0.39771345 1
1.358127 -1.117962 -0.34192973 3
1.5190256 -1.2504079 -0.31161746 1
1.4661659 -1.2068957 -0.50883824 52
1.3285272 -1.0935965 -0.39726356 1
1.3505481 -1.1117234 -0.34002164 2
1.4976737 -1.232832 -0.3072373 1
1.4562216 -1.2158638 -0.50832063 50
1.322356 -1.1040936 -0.39771345 1
1.33974 -1.1186082 -0.3392584 2
1.5072265 -1.25845 -0.3109917 1
1.4443582 -1.2059586 -0.50417948 50
1.3208601 -1.1028446 -0.39726356 1
1.3412471 -1.1198665 -0.33964002 1
1.4373782 -1.2172612 -0.50469714 52
1.2937961 -1.095667 -0.39141482 1
1.3333963 -1.1292028 -0.33964002 1
1.4373782 -1.2172612 -0.50469714 52
1.2536439 -1.0616635 -0.37926748 1
1.3363926 -1.1317403 -0.34040326 1
1.434707 -1.2323011 -0.50676769 71
1.2240272 -1.0513436 -0.37251896 6
1.3120768 -1.1269714 -0.33620545 1
1.4171213 -1.2171963 -0.50055605 49
1.2388101 -1.0640409 -0.37701797 8
1.3165447 -1.1308089 -0.33735031 1
1.4156572 -1.2336518 -0.5031442 60
1.2341026 -1.075439 -0.37791777 8
1.3158197 -1.14665 -0.3392584 1
1.4112879 -1.2298442 -0.50159132 52
1.2385101 -1.0792798 -0.37926748 7
1.3158197 -1.14665 -0.3392584 1
1.4074442 -1.2430135 -0.5031442 66
1.2211003 -1.0784401 -0.37611815 1
1.2993568 -1.1475539 -0.33696869 1
1.4002043 -1.2366195 -0.50055605 52
1.2254823 -1.0823101 -0.37746787 1
1.3037714 -1.1514528 -0.33811355 1
1.394197 -1.2491857 -0.50159132 55
1.2177061 -1.0910517 -0.37746787 1
1.2750279 -1.1424114 -0.33277088 1
5.160975 -4.6241784 1.8567678 3
1.3870031 -1.2427399 -0.49900311 50
1.2104492 -1.0845495 -0.37521836 7
1.2881875 -1.1542022 -0.33620545 1
5.0674529 -4.5403838 1.8231213 14
1.3799419 -1.253451 -0.49952075 52
1.1871716 -1.0783507 -0.37026945 9
1.2817546 -1.1642638 -0.33658707 1
1.3813719 -1.2547499 -0.50003839 45
