# .PCD v0.7 - Point Cloud Data file format
VERSION 0.7
FIELDS x y z intensity
SIZE 4 4 4 4
TYPE F F F F
COUNT 1 1 1 1
WIDTH 1286
HEIGHT 1
VIEWPOINT 0 0 0 1 0 0 0
POINTS 1286
DATA ascii
-1.0635248 0.14890085 0.093953893 14
-2.7621148 0.3867152 -0.34245285 17
-1.1248703 0.15748964 0.17989963 5
-2.3519883 0.32929465 -0.20777929 1
-1.1024129 0.15434545 0.21637741 1
-2.3715825 0.33203802 -0.12550162 1
-1.1309313 0.15833822 0.26364264 1
-1.0535622 0.147506 -0.01856936 1
-5.8275814 0.81590182 1.5767256 2
-3.1758978 0.44464773 -0.85927922 1
-1.0337583 0.14473334 0.018220313 1
-3.2094517 0.4493455 -0.74818718 5
-1.0166751 0.14234157 0.053801361 16
-2.1231656 0.2972579 -0.41672686 9
-1.0477397 0.14669083 0.092559397 20
-1.0832207 0.15165842 0.13430002 15
-2.7680125 0.38754094 -0.34318408 17
-3.5477138 0.49670455 -0.31341204 1
-1.0888029 0.15243995 0.21370608 4
-1.1116321 0.15563621 0.25914362 1
-1.0258368 0.14362426 -0.018080693 3
-3.170805 0.46652746 -0.85876161 1
-1.0267875 0.15107349 0.018115599 13
-3.2120204 0.47259158 -0.74953693 5
-1.0196086 0.15001723 0.054010708 21
-2.1365774 0.31435928 -0.41977978 9
-1.0506325 0.15458184 0.092908025 25
-1.06446 0.15661633 0.13210636 20
-2.7593477 0.40598881 -0.34245285 17
-1.074885 0.15815017 0.17207791 40
-3.6801703 0.54147148 -0.32543954 1
-1.104576 0.16251867 -0.0585116 1
-1.1105185 0.16339301 0.25914362 3
-1.1161846 0.16422667 0.30230063 2
-3.1574261 0.46455899 -0.85513812 1
-1.0168955 0.14961806 0.017941074 21
-3.2582922 0.47939962 -0.76033455 5
-1.0097287 0.14856358 0.053487346 24
-2.1404622 0.31493086 -0.42054302 7
-1.0545748 0.15516189 0.093256645 27
-2.2709389 0.33412817 -0.3635537 1
-1.0546403 0.15517153 0.13088767 27
-2.7377441 0.40281025 -0.33977172 15
-1.0651133 0.15671244 0.17051357 38
-1.0566347 0.15546496 0.20760019 26
-1.0294886 0.15147088 -0.054534066 1
-1.1008943 0.16197698 0.29815954 2
-3.1389163 0.48368627 -0.85099703 1
-1.0217826 0.15744996 0.018045789 27
-1.0067201 0.15512891 0.053382676 29
-2.1460302 0.3306891 -0.42206949 7
-1.0495559 0.16172963 0.092908025 32
-2.2842305 0.35198483 -0.36605665 1
-1.045712 0.1611373 0.12991272 32
-1.0601172 0.16335706 0.16988783 42
-1.022566 0.15757066 0.20111269 20
-1.0284337 0.15847483 -0.054534066 1
-1.0477483 0.1614511 0.24474674 33
-0.9941135 0.15318632 -0.01755712 17
-1.092129 0.16828987 0.29608899 8
-3.1389163 0.48368627 -0.85099703 1
-1.023759 0.15775451 0.018080693 30
-1.0047461 0.15482473 0.053278003 32
-2.1285672 0.32799813 -0.41863492 1
-1.0456176 0.16112277 0.092559397 35
-2.3115633 0.35619661 -0.37043682 1
-1.0496358 0.16174194 0.1304002 37
-2.8546171 0.43987763 -0.3546398 1
-1.0601172 0.16335706 0.16988783 42
-1.0377411 0.15990904 -0.09186215 1
-1.0012221 0.15428171 0.19691488 24
-1.0284337 0.15847483 -0.054534066 3
-1.0323403 0.15907681 0.24114753 38
-1.0039954 0.15470906 -0.017731644 22
-3.1315606 0.50551957 -0.84996176 1
-1.0186557 0.16443892 0.018010883 35
-1.0036125 0.16201052 0.053278003 32
-1.0385371 0.16764832 0.092036463 35
-1.0504112 0.16956513 0.13064393 40
-1.070622 0.17282769 0.17176504 42
-1.0247686 0.1654257 -0.090816282 1
-0.97489631 0.15737495 0.19195385 33
-1.0272733 0.16583003 -0.054534066 15
-1.036947 0.16739163 0.24249724 27
-0.99101776 0.15997739 -0.017522216 24
-1.0432178 0.16840389 0.28314802 48
-3.1506321 0.50859827 -0.85513812 1
-1.0028626 0.16188946 0.017731644 37
-1.0350232 0.16708107 -0.24204734 2
-1.0114994 0.16328369 0.053696692 32
-1.040504 0.16796583 0.092210777 35
-1.0406127 0.16798337 0.12942524 40
-0.98965985 0.1597582 -0.12308804 1
-1.0589212 0.17093886 0.16988783 42
-1.0050994 0.16225055 -0.089073166 1
-0.94582385 0.15268186 0.18622959 59
-1.0036125 0.16201052 -0.053278003 15
-1.0100133 0.1630438 0.2361986 21
-0.99299192 0.16029607 -0.01755712 26
-1.0317748 0.16655669 0.2800422 61
-3.1756725 0.53484464 -0.8629027 1
-1.011597 0.17037249 0.017906168 43
-0.99158508 0.16700208 -0.23214948 2
-1.0083951 0.16983321 0.053592019 29
-1.0222023 0.17215861 -0.20149431 1
-1.0413014 0.17537527 0.092385091 30
-0.993451 0.16731633 -0.15956315 1
-1.031615 0.1737439 0.12845029 41
-1.0139973 0.17077674 -0.12625664 1
-1.0616289 0.17879884 0.17051357 42
-1.0000422 0.16842644 -0.088724546 1
-0.95250666 0.16042052 0.18775605 60
-0.98869985 0.16651616 -0.052545302 13
-0.98389834 0.1657075 0.23034988 32
-0.99384975 0.16738349 -0.017592026 27
-1.0382373 0.17485921 0.28211275 48
-3.2518735 0.54767829 -0.88360822 1
-1.011597 0.17037249 0.017906168 42
-0.94162148 0.15858725 -0.22045204 4
-0.99854743 0.16817468 0.05306866 31
-0.97186655 0.1636811 -0.19157223 1
-1.0570191 0.17802244 0.093779579 30
-0.993451 0.16731633 -0.15956315 1
-1.0394452 0.17506264 0.12942524 38
-0.98659199 0.16616115 -0.1228443 5
-1.0616289 0.17879884 0.17051357 43
-0.98825395 0.16644105 -0.087678678 1
-0.96025062 0.16172476 0.18928252 56
-1.0024865 0.1688381 -0.053278003 19
-0.97044659 0.16344196 0.22720057 42
-0.99582165 0.16771561 -0.01762693 33
-1.0268072 0.17293416 0.27900693 31
-1.0182924 0.17863631 0.018045789 42
-0.92708421 0.16263589 -0.21730272 6
-1.0052484 0.17634805 0.053487346 31
-0.95139265 0.16690026 -0.18775605 4
-1.0518581 0.18452464 0.093430959 25
-0.98839778 0.17339197 -0.15893741 1
-1.0440952 0.18316282 0.13015646 42
-0.98934859 0.17355877 -0.12333178 11
-1.0428764 0.18294901 0.16769774 40
-0.9870981 0.17316398 -0.087678678 1
-0.95719379 0.16791795 0.1889009 59
-1.001314 0.17565784 -0.053278003 27
-0.97315049 0.17071718 0.22810037 43
-0.98086965 0.17207134 -0.017382598 35
-0.99325871 0.17424472 0.27020708 44
-1.0064747 0.17656316 0.01783636 34
-0.92324531 0.16196245 -0.21640292 6
-1.0052484 0.17634805 0.053487346 28
-0.93979031 0.1648649 -0.18546635 5
-1.0538205 0.1848689 0.093605265 20
-0.97477812 0.17100272 -0.15674734 6
-1.0323638 0.18110481 0.12869403 41
-0.9776172 0.17150076 -0.12186934 12
-1.0487133 0.18397298 0.16863635 41
-0.97728598 0.17144267 -0.086807117 2
-0.94559145 0.16588257 0.18661119 72
-0.99934679 0.17531273 -0.05317333 28
-0.97698933 0.17139062 0.22900017 43
-0.98086965 0.17207134 -0.017382598 35
-0.98945314 0.17357711 0.2691718 55
-0.9711135 0.17735681 -0.26451308 1
-1.0052176 0.18358532 0.01783636 34
-0.91825807 0.1677037 -0.21550311 36
-1.0197109 0.18623228 0.054324724 27
-0.948273 0.17318539 -0.18737443 4
-1.066224 0.19472706 0.094825447 19
-0.95607144 0.17460965 -0.15393151 12
-1.0310743 0.1883076 0.12869403 41
-0.98616004 0.18010481 -0.12308804 16
-1.0474035 0.19128984 0.16863635 42
-0.96626544 0.17647141 -0.085935563 3
-0.93861645 0.1714218 0.18546635 74
-0.99416906 0.18156751 -0.052963987 28
-0.97960305 0.17890729 0.22989997 42
-0.98554593 0.17999265 -0.017487312 35
-0.99581891 0.18186882 0.27124235 53
-0.9293043 0.1697211 -0.25312501 4
-1.0071847 0.18394458 0.017871264 35
-0.90675586 0.16560303 -0.21280369 61
-1.0138166 0.18515579 0.054010708 20
-0.94441038 0.17247996 -0.18661119 4
-1.0858237 0.19830661 0.096568562 28
-0.95218498 0.17389984 -0.15330577 17
-1.0349798 0.18902089 0.1291815 40
-0.96077371 0.17546844 -0.11991943 32
-1.0571196 0.19306432 0.17020069 43
-0.9701854 0.17718731 -0.086284183 15
-0.948273 0.17318539 0.18737443 66
-0.98631001 0.18013218 -0.052545302 28
-0.97768605 0.17855717 0.22945008 40
-0.9835788 0.17963338 -0.017452406 34
-1.0015202 0.18291005 0.27279526 48
-0.93002552 0.1764027 -0.25364268 4
-1.0098386 0.19154125 0.017941074 35
-0.89986384 0.17068177 -0.21145399 85
-1.0125328 0.19205229 0.054010708 18
-0.93549901 0.17744088 -0.18508473 5
-1.0785762 0.20457907 0.096045628 42
-0.95874232 0.18184955 -0.15455726 18
-1.0336692 0.19606133 0.1291815 40
-0.95760679 0.18163417 -0.1196757 33
-1.0441364 0.19804668 0.16832349 38
-0.98265928 0.186386 -0.087504365 11
-0.96057421 0.18219702 0.19004576 48
-0.9889856 0.18758595 -0.052754644 31
-0.97836262 0.18557104 0.22989997 36
-0.97054529 0.18408829 -0.017242977 42
-1.007844 0.19116293 0.27486584 44
-0.92053545 0.17460267 -0.25105447 5
-1.019662 0.1934045 0.018115599 30
-0.89986384 0.17068177 -0.21145399 66
-1.049816 0.19912398 0.055999473 15
-0.92392582 0.17524573 -0.18279502 14
-1.0766187 0.20420778 0.095871314 66
-0.95486075 0.18111332 -0.15393151 25
-1.0395201 0.19717111 0.12991272 36
-0.95565647 0.18126425 -0.11943196 35
-1.0227878 0.1939974 0.16488193 28
-0.97482932 0.18490086 -0.086807117 15
-0.9837206 0.18658732 0.19462517 27
-0.99291009 0.18833034 -0.052963987 28
-0.99559402 0.18883942 0.2339491 45
-0.96858066 0.18371564 -0.017208073 38
-1.007844 0.19116293 0.27486584 57
-0.90599477 0.17857032 -0.24743101 7
-1.0202138 0.20108274 0.018150503 26
-0.90244335 0.17787033 -0.2123538 54
-1.0581621 0.20856227 0.056522831 31
-0.91301715 0.17995441 -0.18088692 8
-1.0849038 0.21383303 0.096742876 92
-0.94772601 0.18679549 -0.1529929 36
-1.0653493 0.20997888 0.13332506 36
-0.96212542 0.18963358 -0.12040691 28
-1.0465686 0.20627722 0.16894922 33
-0.96566212 0.19033065 -0.086109877 26
-1.0093269 0.19893694 0.19996783 41
-0.99741572 0.19658925 -0.053278003 28
-1.0095129 0.1989736 0.23754831 50
-0.96527928 0.19025519 -0.017173167 34
-1.0064503 0.19836995 0.27486584 70
-0.89841324 0.177076 -0.24536045 8
-1.014328 0.19992264 0.018045789 24
-0.89479554 0.17636296 -0.21055418 10
-1.0875554 0.21435566 0.058092911 41
-0.92457432 0.18223232 -0.18317664 6
-1.0946777 0.21575946 0.09761443 92
-0.94384986 0.18603149 -0.15236717 50
-1.0497684 0.2069079 0.13137515 41
-0.96602064 0.19040133 -0.12089439 30
-1.056259 0.20818719 0.17051357 43
-0.96957171 0.19110124 -0.086458497 19
-1.0170318 0.20045555 0.20149431 50
-0.97977966 0.19311321 -0.052335955 26
-1.0076009 0.19859675 0.23709841 55
-0.98686069 0.19450887 -0.01755712 19
-1.010241 0.19911711 0.27590111 68
-0.8915087 0.18202774 -0.24380754 52
-1.0423328 0.21282291 0.01856936 27
-0.89357436 0.1824495 -0.21055418 10
-1.0821574 0.22095428 0.057883568 45
-0.91561824 0.18695042 -0.18165016 7
-1.1127049 0.22719145 0.099357545 80
-0.93481994 0.190871 -0.1511157 52
-1.0522256 0.21484284 0.13186263 48
-0.95886737 0.19578099 -0.12016317 42
-1.0567529 0.21576722 0.17082644 52
-0.97605687 0.19929074 -0.087155744 12
-1.0137202 0.20698081 0.20111269 57
-0.98627007 0.20137607 -0.052754644 13
-1.0004978 0.20428106 0.23574871 55
-1.0286179 0.21002261 -0.018325027 25
-1.0126479 0.20676187 0.27693638 65
-0.89529431 0.18280068 -0.24484281 49
-1.0736811 0.2192236 0.019127838 60
-0.89357436 0.1824495 -0.21055418 30
-1.0743299 0.21935606 0.057464879 46
-0.91561824 0.18695042 -0.18165016 15
-1.1205133 0.22878577 0.10005479 78
-0.93869084 0.19166136 -0.15174143 54
-1.0619504 0.21682844 0.13308132 57
-0.95497745 0.19498675 -0.1196757 43
-1.0470757 0.21379133 0.1692621 65
-0.98191327 0.20048648 -0.087678678 9
-1.0214145 0.20855182 0.20263915 57
-1.0117096 0.20657028 -0.054115377 19
-0.99476975 0.20311151 0.23439901 55
-1.0344957 0.21122274 -0.018429741 45
-1.0069695 0.20560247 0.27538347 70
-0.89777642 0.18984586 -0.24587809 31
-1.0897324 0.23043731 0.019441981 97
-0.89418542 0.1890865 -0.21100409 39
-1.0688642 0.22602448 0.057255536 45
-0.91429079 0.19333802 -0.18165016 31
-1.0896496 0.2304198 0.097440124 76
-0.94119519 0.1990273 -0.15236717 47
-1.0856587 0.22957589 0.13624993 45
-0.9535929 0.20164895 -0.1196757 45
-1.0397598 0.21986999 0.16832349 66
-0.97269255 0.20568779 -0.086981431 2
-1.0237752 0.21648985 0.20340239 52
-1.0473697 0.22147921 -0.056104146 69
-1.0009538 0.21166399 0.2361986 48
-1.0466909 0.22133565 -0.018674076 56
-1.0017295 0.21182801 0.2743482 63
-0.88454604 0.18704814 -0.24225463 9
-1.070168 0.22630019 0.019092932 91
-0.89418542 0.1890865 -0.21100409 68
-1.0727723 0.2268509 0.057464879 45
-0.91237003 0.19293186 -0.18126854 32
-1.0740553 0.22712219 0.096045628 52
-0.94312781 0.19943598 -0.15268004 52
-1.0798323 0.22834381 0.13551871 52
-0.95553505 0.20205964 -0.11991943 30
-1.0552208 0.22313944 0.17082644 68
-1.0019318 0.21187079 -0.0895961 11
-1.0295376 0.21770836 0.20454724 55
-1.0317373 0.21817353 -0.055266771 70
-1.018113 0.21529251 0.24024773 50
-1.042778 0.22050823 -0.018604266 49
-1.0130699 0.21422607 0.27745402 68
-0.90209085 0.19734743 -0.24743101 7
-1.0646552 0.23291108 0.019023122 89
-0.89284354 0.19532444 -0.21100409 48
-1.0731136 0.23476151 0.057569552 43
-0.90332925 0.19761835 -0.17974207 27
-1.0607654 0.23206013 0.09499976 61
-0.9243449 0.20221587 -0.14986421 55
-1.0743334 0.23502836 0.13503124 51
-0.95216191 0.20830131 -0.1196757 29
-1.0632861 0.23261158 0.17239077 70
-1.0257308 0.22439575 -0.09186215 37
-1.0279925 0.22489053 0.20454724 72
-1.0262868 0.22451738 -0.055057425 57
-1.0318149 0.22572674 0.24384694 62
-1.0333992 0.22607332 -0.018464645 49
-1.0077751 0.22046763 0.27641875 78
-0.90020365 0.19693457 -0.24691337 7
-1.0685622 0.2337658 0.019092932 78
-0.87951756 0.19240914 -0.20785478 34
-1.0672603 0.23348099 0.057255536 39
-0.91675454 0.20055535 -0.1824134 22
-1.064658 0.23291172 0.095348381 73
-0.93785304 0.205171 -0.15205429 38
-1.0530019 0.23036173 0.1323501 43
-0.99094653 0.21678609 -0.12455047 27
-1.0767943 0.23556672 0.17458086 65
-1.0140527 0.22184096 -0.090816282 56
-1.0260746 0.22447096 0.20416562 82
-1.0184823 0.22281002 -0.05463874 55
-1.0184889 0.22281146 0.24069762 78
-1.0392597 0.22735541 -0.01856936 51
-1.0172112 0.22253193 0.27900693 100
-0.89126968 0.20151022 -0.24484281 8
-1.0649537 0.24077903 0.019058028 76
-0.87435132 0.19768509 -0.20695497 12
-1.0402792 0.23520027 0.0558948 41
-0.91916192 0.20781648 -0.18317664 13
-1.0610628 0.23989932 0.095174074 66
-0.93639785 0.2117134 -0.15205429 31
-1.0436231 0.23595633 0.13137515 23
-0.99909002 0.2258877 -0.12576917 51
-1.0731966 0.24264273 0.17426799 70
-1.028026 0.23242994 -0.092210777 50
-1.0321423 0.23336059 0.2056921 64
-1.0110577 0.22859353 -0.054324724 52
-1.0112063 0.22862712 0.23934792 81
-1.0239938 0.2315183 -0.018325027 49
-1.0250543 0.23175806 0.28159511 100
-0.89503825 0.20236227 -0.24587809 7
-1.0649537 0.24077903 0.019058028 73
-0.88955742 0.2011231 -0.21055418 10
-1.0305387 0.23299803 0.055371441 46
-0.89809781 0.20305401 -0.17897883 9
-1.0571761 0.23902057 0.094825447 42
-0.94025135 0.21258466 -0.15268004 26
-1.0300696 0.23289196 0.12966898 23
-0.98553646 0.22282332 -0.12406299 55
-1.0520025 0.23785086 0.17082644 51
-1.0124793 0.22891493 -0.090816282 48
-1.0436318 0.23595829 0.20798181 64
-1.0344348 0.23387893 -0.055580787 60
-1.0169086 0.22991636 0.24069762 77
-1.0142416 0.22931336 -0.018150503 51
-1.0118643 0.22877587 0.27797166 85
-0.88611472 0.2066945 -0.24380754 8
-1.0477107 0.24438828 0.01877879 65
-0.93561268 0.21824038 -0.22180174 3
-1.0289289 0.24000722 0.055371441 51
-0.90434259 0.21094632 -0.18050531 8
-1.038062 0.24213761 0.093256645 27
-0.94070625 0.21942849 -0.1529929 27
-1.0303936 0.24034892 0.12991272 38
-0.98786336 0.23042832 -0.12455047 51
-1.0599779 0.24724969 0.17239077 47
-1.0031365 0.23399092 -0.090119042 42
-1.028618 0.23993471 0.20531048 49
-1.0153135 0.23683132 -0.05463874 55
-1.0267068 0.23948893 0.24339704 77
-1.006815 0.23484896 -0.018045789 41
-1.0008769 0.23346385 0.27538347 78
-0.88987738 0.20757219 -0.24484281 8
-1.0340788 0.24120851 0.018534455 55
-0.95459062 0.22266716 -0.22630076 22
-1.0405991 0.24272943 0.055999473 54
-0.9177261 0.21406814 -0.18317664 13
-1.0303007 0.24032724 0.092559397 27
-0.94455373 0.22032596 -0.15361865 30
-1.0013957 0.23358487 0.12625664 42
-0.98593014 0.22997738 -0.12430673 44
-1.0503591 0.24500605 0.17082644 37
-1.0070171 0.23489611 -0.090467662 45
-1.0190583 0.23770484 0.20340239 28
-1.0075333 0.23501652 -0.054220051 55
-1.0153201 0.23683286 0.24069762 65
-1.006815 0.23484896 -0.018045789 40
-1.012165 0.2360969 0.27848929 80
-0.91090721 0.21936217 -0.25105447 5
-1.0226057 0.24626109 0.018359931 56
-0.94728911 0.22812356 -0.22495106 46
-1.0407773 0.25063711 0.056104146 42
-0.91807944 0.22108936 -0.18355826 13
-1.0343657 0.2490931 0.093082331 37
-0.97176009 0.2340166 -0.15831168 20
-0.98811907 0.23795612 0.12479421 42
-0.9707498 0.23377329 -0.12260056 40
-1.0140105 0.24419123 0.16519479 40
-1.0014364 0.24116316 -0.090119042 45
-1.0020617 0.24131376 0.20034945 38
-0.9980588 0.24034978 -0.053801361 57
-1.0098102 0.24317972 0.23979783 41
-1.0187174 0.24532475 -0.018290121 44
-1.0160841 0.24469058 0.2800422 72
-0.95598298 0.2302172 -0.2634778 9
-1.0206616 0.24579291 0.018325027 65
-0.9397108 0.22629857 -0.22315145 78
-1.0155345 0.24455824 0.054743409 39
-0.92762291 0.2233876 -0.18546635 16
-1.0421137 0.25095895 0.093779579 42
-0.979442 0.23586653 -0.15956315 34
-0.990049 0.23842087 0.12503795 45
-0.96496004 0.23237902 -0.12186934 36
-1.0216924 0.24604116 0.16644627 46
-1.0091845 0.24302903 -0.090816282 43
-0.99251831 0.23901553 0.19844136 50
-1.0038841 0.24175259 -0.054115377 58
-0.98518068 0.23724851 0.2339491 42
-1.0012203 0.24111114 -0.017975979 43
-1.0104496 0.2433337 0.27848929 44
-0.95626885 0.23718405 -0.26399544 38
-1.017024 0.2522532 0.018290121 68
-0.94571441 0.23456623 -0.22495106 55
-1.0138464 0.25146505 0.054743409 34
-0.92798638 0.23016913 -0.18584797 20
-1.0094407 0.25037229 0.090990596 40
-0.97206193 0.24110122 -0.15862454 40
-0.99611002 0.24706589 0.12601291 46
-0.98262304 0.2437207 -0.12430673 41
-0.99315208 0.24633221 0.1620661 50
-0.9978379 0.24749444 -0.089944728 30
-0.99086839 0.24576581 0.19844136 53
-0.9963997 0.24713773 -0.053801361 55
-0.98354298 0.24394886 0.2339491 50
-0.98985159 0.2455136 -0.017801454 36
-0.99376959 0.24648538 0.2743482 48
-0.94126856 0.23346353 -0.25985432 48
-1.017024 0.2522532 0.018290121 65
-0.94382298 0.23409709 -0.22450115 49
-1.0041537 0.24906099 0.054220051 34
-0.91845882 0.22780599 -0.18393987 31
-1.0094407 0.25037229 0.090990596 42
-0.96822739 0.24015014 -0.15799882 40
-0.99611002 0.24706589 0.12601291 50
-0.96720934 0.23989764 -0.12235682 36
-0.98931748 0.24538113 0.16144037 46
-0.99203652 0.24605553 -0.089421794 30
-0.98134083 0.24340267 0.19653326 52
-1.0099694 0.25050342 -0.054534066 64
-0.98732585 0.24488713 0.2348489 50
-0.98791069 0.24503221 -0.01776655 43
-0.98439443 0.24416006 0.27175999 59
-0.93395889 0.23875764 -0.25830141 52
-1.0055059 0.25704795 0.018115599 65
-0.92135537 0.23553568 -0.21955223 25
-1.0062159 0.25722948 0.054429393 34
-0.93011975 0.2377762 -0.18661119 23
-1.0056928 0.25709575 0.090816282 42
-0.9626565 0.24609391 -0.15737307 40
-0.99431658 0.25418752 0.12601291 48
-0.98470038 0.25172922 -0.12479421 36
-0.99901927 0.25538972 0.16331758 48
-0.98638976 0.25216109 -0.089073166 29
-0.96625936 0.24701495 0.19386195 53
-0.99654073 0.25475609 -0.053906035 58
-0.98932421 0.25291127 0.23574871 47
-0.97063291 0.248133 -0.017487312 41
-0.98449373 0.25167638 0.27227762 65
-0.93395889 0.23875764 -0.25830141 49
-1.0113181 0.25853381 0.018220313 65
-0.9119153 0.23312241 -0.21730272 43
-0.99460572 0.25426143 0.053801361 38
-0.93011975 0.2377762 -0.18661119 19
-1.0095536 0.25808269 0.091164909 45
-0.9626565 0.24609391 -0.15737307 39
-0.98277712 0.25123757 0.12455047 50
-0.97508413 0.24927093 -0.12357552 35
-0.99901927 0.25538972 0.16331758 50
-0.98832005 0.25265455 -0.08924748 27
-0.97576982 0.24944621 0.19577003 52
-0.98686558 0.25228274 -0.053382676 57
-0.98366016 0.25146329 0.23439901 48
-0.97450769 0.24912356 -0.01755712 41
-0.99385202 0.25406876 0.27486584 70
-0.93791717 0.24658293 -0.25985432 37
-1.0153369 0.26693693 0.018325027 65
-0.91219205 0.23981966 -0.21775262 48
-0.98319387 0.25848639 0.053278003 40
-0.94366956 0.24809526 -0.18966414 16
-1.0077734 0.26494846 0.091164909 50
-0.96095908 0.25264075 -0.15737307 37
-0.99256337 0.26094967 0.12601291 52
-0.97144496 0.25539756 -0.12333178 37
-0.98961592 0.26017478 0.1620661 45
-0.99428505 0.26140231 -0.089944728 24
-0.98354292 0.25857815 0.19767812 53
-0.98705715 0.25950205 -0.053487346 52
-0.98381042 0.25864848 0.2348489 55
-0.95731759 0.25168338 -0.017277882 51
-0.99770468 0.26230136 0.27641875 78
-0.92110193 0.24216211 -0.25519559 68
-1.0076009 0.26490313 0.018185407 61
-0.90842265 0.23882867 -0.21685281 45
-0.97933066 0.25747073 0.05306866 45
-0.94746703 0.24909364 -0.19042738 24
-1.0058465 0.26444188 0.090990596 50
-0.96095908 0.25264075 -0.15737307 39
-0.98488396 0.25893071 0.12503795 51
-0.96184576 0.25287387 -0.12211308 35
-0.98388457 0.25866798 0.16112749 47
-0.98657745 0.25937593 -0.08924748 24
-0.99113786 0.26057491 0.19920459 59
-0.98319387 0.25848639 -0.053278003 31
-0.98569512 0.25914398 0.2352988 61
-0.95151567 0.25015804 -0.017173167 52
-0.99770468 0.26230136 0.27641875 74
-0.92311865 0.24959514 -0.25623086 24
-1.0095878 0.27297488 0.018255217 65
-0.91990149 0.24872528 -0.22000213 28
-0.98522145 0.26638663 0.053487346 45
-0.94380975 0.25518966 -0.19004576 55
-0.9982059 0.2698974 0.090467662 52
-0.95535809 0.25831211 -0.15674734 38
-0.98880112 0.26735452 0.12576917 50
-0.96963829 0.26217324 -0.12333178 37
-0.99540305 0.26913959 0.16331758 53
-0.98089594 0.2652171 -0.08889886 24
-0.98360896 0.26595065 0.19805974 64
-0.98522145 0.26638663 -0.053487346 28
-0.98762435 0.26703635 0.2361986 65
-0.97098023 0.26253605 -0.01755712 51
-0.99025452 0.26774749 0.27486584 70
-0.90819955 0.24556127 -0.25208974 4
-0.99028397 0.26775548 0.017906168 58
-0.91425794 0.24719936 -0.21865243 5
-0.98522145 0.26638663 0.053487346 47
-0.95139056 0.25723937 -0.19157223 48
-0.99243593 0.26833731 0.089944728 60
-0.95154428 0.25728095 -0.1561216 46
-0.99454999 0.26890892 0.12650038 57
-0.97155458 0.26269138 -0.12357552 35
-1.0087514 0.27274874 0.16550766 65
-0.97704929 0.26417705 -0.088550232 24
-0.98739934 0.26697552 0.19882298 68
-0.98136538 0.26534402 -0.053278003 39
-0.98762435 0.26703635 0.2361986 65
-0.95939791 0.25940442 -0.017347692 43
-0.99025452 0.26774749 0.27486584 70
-0.91204703 0.25344738 -0.25364268 4
-0.99417067 0.27626857 0.018010883 58
-0.93504101 0.25983715 -0.22405125 18
-0.97564036 0.27111924 0.05306866 54
-0.94578838 0.2628237 -0.190809 52
-0.99629736 0.27685958 0.090467662 67
-0.94972497 0.26391765 -0.1561216 46
-0.969697 0.26946765 0.12357552 63
-0.9677844 0.26893616 -0.12333178 37
-1.0011129 0.27819777 0.16456905 66
-0.97326154 0.27045819 -0.088375926 22
-0.97794515 0.27175972 0.1972965 64
-0.96216995 0.26737598 -0.052335955 40
-0.9819808 0.27288118 0.2352988 61
-0.97683048 0.27144995 -0.01769674 51
-0.99208385 0.27568868 0.27590111 70
-0.91763103 0.2549991 -0.25519559 6
-0.99031729 0.27519777 0.017941074 56
-0.94067377 0.26140243 -0.22540095 48
-0.97179168 0.27004972 0.052859318 60
-0.94578838 0.2628237 -0.190809 46
-1.0058956 0.2795268 0.091339216 80
-0.95733798 0.2660332 -0.15737307 38
-0.97734749 0.27159363 0.12455047 70
-0.96395916 0.26787317 -0.1228443 36
-0.98588687 0.27396661 0.1620661 56
-0.97326154 0.27045819 -0.088375926 19
-0.98740304 0.27438796 0.19920459 59
-0.96216995 0.26737598 -0.052335955 40
-0.9819808 0.27288118 0.2352988 57
-0.94793016 0.26341888 -0.017173167 50
-0.99580646 0.27672318 0.27693638 70
-0.89910948 0.25662711 -0.25053683 5
-0.99798644 0.28484893 0.018115599 55
-0.9275825 0.264754 -0.22270155 94
-0.96988267 0.27682748 0.052859318 61
-0.94015473 0.26834241 -0.19004576 57
-1.0000879 0.28544873 0.090990596 85
-0.94785935 0.27054149 -0.1561216 48
-0.98688078 0.28167912 0.12601291 76
-0.96206558 0.27459627 -0.1228443 37
-0.98964876 0.28246918 0.16300471 57
-0.97134972 0.27724618 -0.088375926 19
-0.99301487 0.28342995 0.20073107 53
-0.95835936 0.27353844 -0.052231286 48
-0.98192573 0.28026485 0.23574871 52
-0.96722001 0.27606747 -0.01755712 51
-0.99013501 0.28260797 0.27590111 70
-0.9176861 0.26192933 -0.25571322 3
-0.98260319 0.28045821 0.01783636 55
-0.93507814 0.26689342 -0.22450115 68
-0.97372383 0.27792382 0.05306866 48
-0.9326033 0.26618704 -0.18851928 73
-0.99625611 0.28435507 0.090641975 90
-0.94406033 0.26945716 -0.15549585 61
-0.97924531 0.2794998 0.12503795 65
-0.95824784 0.27350661 -0.12235682 36
-0.99344778 0.28355351 0.16363046 51
-0.94452745 0.26959047 -0.085935563 38
-0.98357558 0.28073573 0.19882298 57
-0.96220046 0.27463478 -0.052440628 37
-0.98005182 0.27972999 0.2352988 55
-0.94414514 0.26948136 -0.017138263 56
-0.98270434 0.28048706 0.27383056 70
-0.92881256 0.2721318 -0.25933668 12
-0.97102618 0.28449991 0.017661836 52
-0.93132198 0.27286702 -0.22405125 68
-0.9736765 0.28527644 0.05317333 41
-0.93072224 0.27269131 -0.18851928 63
-0.99615866 0.29186347 0.090816282 75
-0.92888635 0.27215341 -0.15330577 92
-0.98108023 0.28744563 0.12552543 58
-0.96012509 0.28130603 -0.1228443 37
-0.99902678 0.29270378 0.16488193 51
-0.95027035 0.27841869 -0.086632811 30
-0.97593951 0.28593948 0.19767812 55
-0.95259297 0.2790992 -0.052021939 66
-0.98368543 0.28820893 0.23664851 55
-0.94415987 0.27662838 -0.017173167 50
-0.98443007 0.28842711 0.27486584 70
-0.94178998 0.27593404 -0.26296014 38
-0.97486424 0.28562441 0.017731644 48
-0.92197138 0.27012739 -0.22180174 100
-0.96025974 0.28134546 0.052440628 36
-0.94202656 0.27600336 -0.190809 38
-0.99615866 0.29186347 0.090816282 55
-0.93646908 0.27437508 -0.15455726 74
-0.97727019 0.28632933 0.12503795 51
-0.9563151 0.28018972 -0.12235682 37
-0.99713105 0.29214835 0.16456905 53
-0.94644636 0.2772983 -0.086284183 30
-0.97593951 0.28593948 0.19767812 49
-0.9449262 0.27685291 -0.051603254 91
-0.97807509 0.28656515 0.2352988 57
-0.96143109 0.28168866 -0.017487312 40
-0.9881379 0.28951347 0.27590111 68
-0.93244034 0.28027776 -0.26088959 35
-0.97284645 0.29242325 0.017731644 47
-0.92379558 0.27767926 -0.22270155 91
-0.95253402 0.28631762 0.052126613 38
-0.92503554 0.278052 -0.18775605 64
-0.99218875 0.29823726 0.090641975 42
-0.93453079 0.28090611 -0.15455726 72
-0.97524744 0.29314494 0.12503795 48
-0.95433569 0.28685918 -0.12235682 41
-0.98750013 0.29682791 0.16331758 48
-0.95784378 0.28791365 -0.087504365 22
-0.97391951 0.2927458 0.19767812 50
-0.9429704 0.28344294 -0.051603254 94
-0.96671939 0.29058152 0.23304929 60
-0.9345454 0.28091052 -0.017033549 57
-0.99349296 0.29862928 0.27797166 65
-0.91393954 0.27471671 -0.25571322 54
-0.96518624 0.29012069 0.017592026 47
-0.93499309 0.28104508 -0.22540095 56
-0.94488311 0.28401789 0.051707923 46
-0.93631649 0.28144288 -0.19004576 47
-0.99600488 0.29938433 0.090990596 35
-0.94209784 0.28318065 -0.15580873 46
-0.97144532 0.29200208 0.12455047 45
-0.92772079 0.27885914 -0.11894448 70
-0.97993308 0.29455337 0.1620661 43
-0.94639546 0.28447247 -0.086458497 44
-0.97579968 0.29331094 0.19805974 52
-0.95062131 0.2857427 -0.052021939 68
-0.97045189 0.29170346 0.2339491 51
-0.93837553 0.28206179 -0.017103359 57
-0.98054242 0.29473653 0.2743482 72
-0.93046093 0.28678054 -0.26088959 27
-0.96313733 0.29685184 0.017592026 48
-0.93114597 0.28699169 -0.22495106 55
-0.94860327 0.29237226 0.052021939 44
-0.92870033 0.2862379 -0.1889009 61
-0.97485048 0.30046201 0.08924748 37
-0.93065917 0.28684166 -0.15424438 71
-0.97507417 0.30053094 0.12528169 43
-0.95041275 0.29292998 -0.12211308 39
-0.97785288 0.30138737 0.1620661 46
-0.94438642 0.29107255 -0.086458497 41
-0.96059507 0.29606828 0.19538841 49
-0.95814657 0.29531363 -0.052545302 46
-0.97584099 0.30076727 0.23574871 52
-0.93829447 0.28919494 -0.017138263 50
-0.97661477 0.30100578 0.27383056 68
-0.93969166 0.28962559 -0.2634778 30
-0.95549339 0.29449588 0.017452406 54
-0.92742139 0.2858437 -0.22405125 60
-0.94860327 0.29237226 0.052021939 44
-0.94933814 0.29259875 -0.19309871 33
-0.97485048 0.30046201 0.08924748 37
-0.93254691 0.28742349 -0.15455726 58
-0.96179497 0.2964381 0.12357552 41
-0.96369201 0.29702279 -0.12381925 41
-0.97596514 0.30080554 0.16175324 42
-0.93677038 0.2887252 -0.085761249 56
-0.95871896 0.29549003 0.19500679 52
-0.94669461 0.29178399 -0.05191727 81
-0.97025406 0.29904532 0.23439901 50
-0.94211644 0.29037294 -0.017208073 50
-0.98399937 0.30328181 0.27590111 70
-0.92480284 0.29194418 -0.25985432 24
-0.94965279 0.29978886 0.017382598 74
-0.91616255 0.28921658 -0.22180174 89
-0.93516356 0.29521486 0.051393908 57
-0.94358009 0.29787183 -0.19233547 33
-0.97658265 0.30829015 0.0895961 37
-0.93810391 0.29614308 -0.15580873 36
-0.9654339 0.30477068 0.12430673 43
-0.93135977 0.29401407 -0.11991943 56
-0.99461615 0.31398302 0.16519479 45
-0.9461832 0.29869357 -0.086807117 33
-0.96417415 0.304373 0.19653326 52
-0.93897277 0.29641736 -0.051603254 100
-0.9719128 0.30681595 0.2352988 48
-0.94583893 0.29858491 -0.017312787 55
-0.98743892 0.31171727 0.27745402 63
-0.94690973 0.29892293 -0.26606598 26
-0.94965279 0.29978886 0.017382598 72
-0.92173755 0.29097649 -0.22315145 75
-0.92183125 0.29100609 0.050661206 72
-0.94358009 0.29787183 -0.19233547 33
-0.96708286 0.30529124 0.088724546 40
-0.93998766 0.29673773 -0.1561216 34
-0.95218289 0.30058756 0.12260056 41
-0.93893182 0.29640442 -0.12089439 51
-0.96447629 0.30446839 0.1601889 40
-0.9461832 0.29869357 -0.086807117 36
-0.96230197 0.30378199 0.19615164 49
-0.93706816 0.29581612 -0.051498581 100
-0.96076274 0.30329606 0.23259939 47
-0.91914189 0.29015711 -0.016824121 71
-0.98006994 0.30939102 0.27538347 68
-0.9392854 0.30374303 -0.26451308 30
-0.94943947 0.30702662 0.017417502 68
-0.92710048 0.29980272 -0.22495106 55
-0.92357796 0.29866362 0.050870549 68
-0.93213755 0.3014316 -0.19042738 38
-0.95734501 0.3095831 0.088027298 40
-0.94729084 0.30633181 -0.15768594 31
-0.96706027 0.3127248 0.12479421 46
-0.92172933 0.29806581 -0.11894448 72
-0.96420676 0.31180203 0.16050176 41
-0.94028342 0.30406576 -0.086458497 44
-0.97510183 0.31532523 0.19920459 49
-0.94068122 0.30419442 -0.051812597 83
-0.96233034 0.31119522 0.2334992 47
-0.92660725 0.29964322 -0.016998643 82
-0.98340052 0.31800884 0.27693638 68
-0.91171342 0.29482689 -0.2567485 45
-0.94563407 0.30579606 0.017347692 87
-0.94193411 0.30459958 -0.22855027 46
-0.93498015 0.30235082 0.051498581 58
-0.94334561 0.30505601 -0.19271709 37
-0.96492797 0.31203523 0.088724546 42
-0.94353175 0.30511621 -0.15706021 31
-0.95572758 0.30906004 0.12333178 43
-0.94628358 0.3060061 -0.12211308 39
-0.96796584 0.31301764 0.16112749 41
-0.93649197 0.3028397 -0.086109877 48
-0.95642167 0.30928451 0.19538841 48
-0.95208347 0.30788162 -0.052440628 46
-0.97160131 0.31419325 0.23574871 50
-0.91519111 0.29595152 -0.016789215 76
-0.97604799 0.31563121 0.27486584 65
-0.93714195 0.31029302 -0.26451308 22
-0.9396795 0.31113321 0.017277882 100
-0.92683488 0.3068803 -0.22540095 46
-0.93284655 0.30887079 0.051498581 58
-0.94119292 0.31163433 -0.19271709 37
-0.953269 0.31563276 0.087852992 42
-0.94700444 0.31355855 -0.15799882 36
-0.94600874 0.31322885 0.12235682 46
-0.94600874 0.31322885 -0.12235682 37
-0.95263022 0.31542125 0.15893741 36
-0.94192058 0.31187525 -0.086807117 33
-0.94492042 0.31286851 0.19348033 46
-0.93663865 0.31012636 -0.051707923 87
-0.96938419 0.3209686 0.23574871 50
-0.92069608 0.30484769 -0.016928835 70
-0.97382075 0.32243755 0.27486584 68
-0.94080985 0.31150746 -0.26554835 20
-0.9396795 0.31113321 0.017277882 100
-0.92313492 0.30565521 -0.22450115 54
-0.93095052 0.30824301 0.051393908 63
-0.95051169 0.31471983 -0.19462517 39
-0.96461743 0.3193903 0.08889886 47
-0.94137865 0.31169581 -0.15706021 34
-0.94223976 0.31198093 0.12186934 50
-0.9403553 0.31135696 -0.1216256 35
-0.96388173 0.31914672 0.16081463 10
-0.9494862 0.31438026 -0.087504365 26
-0.95796669 0.3171882 0.19615164 50
-0.93474263 0.30949858 -0.051603254 94
-0.95828438 0.31729338 0.23304929 47
-0.92069608 0.30484769 -0.016928835 68
-0.97748858 0.32365203 0.27590111 68
-0.95141977 0.32240802 -0.2691718 15
-0.94127232 0.31896937 0.017347692 85
-0.92836118 0.31459415 -0.22630076 46
-0.92499274 0.31345269 0.051184565 68
-0.94643199 0.32071781 -0.19424355 35
-0.95859021 0.32483789 0.088550232 42
-0.95040494 0.32206413 -0.15893741 37
-0.94191885 0.31918845 0.12211308 45
-0.93251848 0.31600294 -0.12089439 32
-0.98220986 0.33284187 0.16425619 6
-0.94349432 0.31972232 -0.087155744 26
-0.94829136 0.32134792 0.19462517 45
-0.93445075 0.31665772 -0.051707923 87
-0.95789158 0.32460111 0.2334992 46
-0.93180281 0.3157604 -0.017173167 63
-0.98435354 0.3335683 0.27848929 59
-0.94776046 0.32116801 -0.26813653 9
-0.94884795 0.32153651 0.017487312 55
-0.93205249 0.31584501 -0.22720057 46
-0.92877591 0.3147347 0.051393908 61
-0.94643199 0.32071781 -0.19424355 41
-0.96047723 0.32547733 0.088724546 42
-0.95040494 0.32206413 -0.15893741 37
-0.94379896 0.31982556 0.12235682 46
-0.96071965 0.32555947 -0.12455047 31
-0.94349432 0.31972232 -0.087155744 24
-0.95944774 0.32512847 0.19691488 48
-0.93634236 0.31729874 -0.051812597 80
-0.95420027 0.32335025 0.23259939 46
-0.90907592 0.30805895 -0.016754311 76
-0.98435354 0.3335683 0.27848929 63
-0.94190162 0.32634681 -0.26710126 11
-0.94096887 0.32602364 0.017382598 74
-0.92988104 0.32218194 -0.22720057 46
-0.92283773 0.31974161 0.051184565 59
-0.94422704 0.32715249 -0.19424355 41
-0.94129616 0.32613704 0.087155744 44
-0.94819075 0.32852584 -0.15893741 37
-0.94535148 0.3275421 0.1228443 45
-0.95285428 0.33014163 -0.12381925 34
-0.95565683 0.33111265 0.1601889 31
-0.94506139 0.32744157 -0.087504365 22
-0.94237196 0.32650977 0.19386195 45
-0.93793529 0.32497254 -0.052021939 64
-0.95565987 0.33111373 0.2334992 43
-0.9220739 0.31947696 -0.017033549 55
-0.97475868 0.337731 0.27641875 57
-0.95102859 0.32950908 -0.26968944 8
-0.93718988 0.3247143 0.017312787 90
-0.92988104 0.32218194 -0.22720057 46
-0.92849928 0.3217032 0.051498581 55
-0.95721245 0.33165166 -0.19691488 46
-0.95447433 0.33070296 0.088375926 45
-0.95379031 0.33046594 -0.15987602 38
-0.93972439 0.32559243 0.12211308 45
-0.96223277 0.33339107 -0.12503795 35
-0.9631229 0.33369946 0.16144037 41
-0.94129616 0.32613704 -0.087155744 14
-0.94051689 0.32586703 0.19348033 46
-0.93604809 0.32431868 -0.05191727 60
-0.966708 0.33494163 0.2361986 43
-0.93152142 0.3227503 -0.017208073 45
-0.97293329 0.33709854 0.27590111 59
-0.963332 0.34113377 -0.27383056 6
-0.9462679 0.33509105 0.017522216 50
-0.9203186 0.32590193 -0.22540095 42
-0.92063993 0.32601571 0.051184565 56
-0.95678347 0.3388148 -0.1972965 50
-0.9503231 0.33652705 0.088201612 40
-0.94779468 0.3356317 -0.15925029 38
-0.93187273 0.32999343 0.12138186 45
-0.95806992 0.33927035 -0.12479421 37
-0.95151877 0.33695048 0.15987602 30
-0.95220125 0.33719215 -0.088375926 16
-0.9364264 0.33160597 0.19309871 41
-0.93946695 0.3326827 -0.052231286 33
-0.95705789 0.33891198 0.23439901 43
-0.93307292 0.33041847 -0.017277882 43
-0.97607934 0.34564781 0.27745402 65
-0.98518455 0.34887215 -0.2800422 8
-0.9481529 0.33575857 0.01755712 45
-0.92399251 0.32720292 -0.22630076 40
-0.92440534 0.3273491 0.051393908 50
-0.95123154 0.33684877 -0.19615164 45
-0.95971364 0.33985242 0.089073166 32
-0.95524293 0.33826926 -0.16050176 39
-0.94122887 0.33330664 0.12260056 40
-0.95994121 0.33993301 -0.12503795 39
-0.96082914 0.34024745 0.16144037 10
-0.96534801 0.34184766 -0.0895961 22
-0.94012767 0.33291668 0.19386195 20
-0.94888043 0.33601618 -0.052754644 30
-0.95705789 0.33891198 0.23439901 42
-0.92741793 0.32841593 -0.017173167 45
-0.98154247 0.3475824 0.27900693 57
-0.99719393 0.36117601 -0.28418332 12
-0.94572604 0.34253475 0.01755712 43
-0.93262106 0.33778822 -0.22900017 40
-0.92767286 0.33599603 0.051707923 42
-0.93772131 0.33963549 -0.19386195 45
-0.96849698 0.35078222 0.090119042 27
-0.95651251 0.34644154 -0.16112749 39
-0.94815189 0.34341338 0.12381925 33
-0.96308345 0.34882146 -0.12576917 44
-0.96208441 0.34845963 0.1620661 2
-0.95163727 0.34467575 -0.088550232 24
-0.94879675 0.34364694 0.19615164 8
-0.96523046 0.34959909 -0.053801361 40
-0.9546082 0.34575179 0.23439901 41
-0.92316395 0.33436292 -0.017138263 46
-0.97721374 0.35393935 0.27848929 57
-1.0189905 0.36907059 -0.29039496 20
-0.94948637 0.34389672 0.01762693 43
-0.9436146 0.34177002 -0.23169959 40
-0.94081801 0.3407571 0.052440628 33
-0.94510496 0.3423098 -0.19538841 43
-0.96100378 0.34806824 0.089421794 35
-0.95651251 0.34644154 -0.16112749 39
-0.95748413 0.34679344 0.12503795 33
-0.95748413 0.34679344 -0.12503795 39
-0.97508556 0.35316855 0.16425619 12
-0.95163727 0.34467575 -0.088550232 26
-0.95802629 0.34698981 0.19805974 4
-0.95396322 0.34551817 -0.05317333 42
-0.96560174 0.34973359 0.23709841 42
-0.93444496 0.33844885 -0.017347692 39
-0.96268266 0.34867629 0.2743482 55
-1.0345733 0.38270029 -0.29557136 44
-0.94149709 0.34827036 0.017522216 47
-0.93395561 0.34548068 -0.22989997 42
-0.95158923 0.35200354 0.05317333 36
-0.94275308 0.34873495 -0.19538841 45
-0.9642182 0.35667515 0.089944728 37
-0.94672149 0.35020292 -0.15987602 39
-0.95882499 0.35468012 0.12552543 37
-0.95882499 0.35468012 -0.12552543 39
-0.96154296 0.35568553 0.16237898 17
-0.95487505 0.353219 -0.089073166 29
-0.95564222 0.35350281 0.19805974 2
-0.95346248 0.35269648 -0.053278003 43
-0.96137112 0.35562199 0.23664851 40
-0.94712353 0.35035163 -0.01762693 37
-0.97478193 0.36058277 0.27848929 55
-1.0291377 0.38068962 -0.29401845 37
-0.95275003 0.35243294 0.017731644 48
-0.9266448 0.34277633 -0.22810037 38
-0.94222319 0.34853894 0.052649971 37
-0.9593249 0.35486504 -0.19882298 37
-0.97543007 0.36082253 0.090990596 42
-0.94672149 0.35020292 -0.15987602 40
-0.95510143 0.35330275 0.12503795 40
-0.949516 0.35123664 -0.12430673 43
-0.97636443 0.36116818 0.16488193 7
-0.96234959 0.35598391 -0.089770414 32
-0.98142064 0.36303851 0.20340239 2
-0.95158923 0.35200354 -0.05317333 42
-0.96502656 0.35697415 0.23754831 43
-0.94524807 0.34965786 -0.017592026 38
-0.98021752 0.36259347 0.2800422 63
-1.0282621 0.3885479 -0.29453608 28
-0.95400757 0.36048943 0.017801454 50
-0.9278751 0.35061479 -0.22900017 40
-0.9378987 0.35440239 0.052545302 38
-0.95131457 0.35947183 -0.19767812 39
-0.97475106 0.36832774 0.091164909 42
-0.94794929 0.35820019 -0.16050176 38
-0.95818245 0.36206698 0.12576917 36
-0.94332689 0.35645354 -0.12381925 42
-0.98490638 0.37216508 0.16675913 5
-0.967296 0.3655107 -0.090467662 32
-0.99171788 0.37473896 0.20607372 4
-0.95658195 0.36146218 -0.053592019 45
-0.95886505 0.36232489 0.23664851 45
-0.95774877 0.3619031 -0.017871264 49
-0.98308367 0.37147635 0.28159511 65
-1.0336835 0.39059648 -0.29608899 35
-0.96523118 0.36473048 0.018010883 53
-0.93516684 0.3533701 -0.23079978 40
-0.94350368 0.35652032 0.052859318 37
-0.94396847 0.35669598 -0.19615164 39
-0.97475106 0.36832774 0.091164909 47
-0.95534068 0.36099318 -0.16175324 40
-0.96189636 0.36347035 0.12625664 37
-0.95446855 0.36066362 -0.12528169 42
-0.97381926 0.36797562 0.16488193 5
-0.95984089 0.36269367 -0.089770414 35
-0.96779186 0.36569807 -0.054220051 48
-0.95886505 0.36232489 0.23664851 45
-0.92968976 0.35130048 -0.017347692 45
-0.98127651 0.37079349 0.28107747 65
-1.0165129 0.39223969 -0.29194787 24
-0.95333332 0.3678607 0.01783636 53
-0.93267709 0.35989013 -0.23079978 42
-0.94658178 0.3652555 0.05317333 37
-0.95610833 0.3689315 -0.19920459 39
-0.9665795 0.37297198 0.090641975 47
-0.95279723 0.36765385 -0.16175324 39
-0.96674341 0.37303525 0.1272316 38
-0.95192742 0.36731821 -0.12528169 43
-0.98965591 0.38187644 0.16801062 8
-0.95170903 0.36723396 -0.08924748 39
-0.97625619 0.37670591 0.20340239 35
-0.97080529 0.37460259 -0.054534066 49
-0.96722066 0.3732194 0.23934792 46
-0.93281144 0.35994199 -0.017452406 37
-0.97505933 0.3762441 0.2800422 65
-1.0345361 0.3991943 -0.29712427 38
-0.95706451 0.36930048 0.017906168 56
-0.93631327 0.36129323 -0.23169959 42
-0.95962518 0.37028855 0.053906035 39
-0.95244503 0.36751795 -0.19844136 39
-0.97587353 0.37655824 0.091513529 55
-0.94542545 0.36480933 -0.16050176 39
-0.95748341 0.3694621 0.12601291 36
-0.97415143 0.37589374 -0.12820655 43
-0.98044121 0.37832078 0.16644627 10
-0.96100307 0.37082022 -0.090119042 45
-0.96343482 0.37175855 0.20073107 39
-0.97080529 0.37460259 -0.054534066 51
-0.97267491 0.37532401 0.24069762 46
-0.95519894 0.36858058 -0.017871264 49
-0.97325701 0.37554863 0.27952456 65
-1.0227369 0.40286678 -0.29453608 44
-0.95446301 0.37597299 0.017906168 55
-0.92651558 0.36496419 -0.22989997 46
-0.96073329 0.37844291 0.054115377 39
-0.95168275 0.37487781 -0.19882298 43
-0.98805094 0.38920361 0.092908025 52
-0.95020729 0.37429661 -0.16175324 40
-0.95488077 0.37613755 0.12601291 32
-0.9530338 0.37540999 -0.12576917 42
-1.0035071 0.39529198 0.17082644 5
-0.96580589 0.38044107 -0.090816282 43
-0.96446925 0.37991455 0.20149431 9
-0.96444988 0.37990692 -0.054324724 54
-0.97184414 0.38281959 0.24114753 46
-0.94516027 0.37230852 -0.017731644 44
-0.97600377 0.38445812 0.28107747 65
-1.0245343 0.40357482 -0.29505372 48
-0.97492909 0.38403478 0.018290121 56
-0.93376815 0.36782107 -0.23169959 42
-0.95144188 0.37478292 0.053592019 41
-0.95350939 0.37559733 -0.19920459 39
-0.98805094 0.38920361 0.092908025 52
-0.95388317 0.37574458 -0.16237898 38
-0.96042168 0.37832016 0.12674412 38
-0.9530338 0.37540999 -0.12576917 42
-0.96765965 0.38117126 -0.090990596 40
-0.98638904 0.38854897 0.20607372 2
-0.95701677 0.3769789 -0.053906035 51
-0.96640474 0.38067695 0.23979783 46
-0.94516027 0.37230852 -0.017731644 44
-0.98858577 0.38941431 0.28470096 68
-1.0181785 0.40909871 -0.29401845 48
-0.97043699 0.38991642 0.018255217 55
-0.9294346 0.3734419 -0.23124969 46
-0.95998836 0.38571823 0.054220051 38
-0.94364387 0.37915111 -0.19767812 39
-0.97983259 0.39369154 0.092385091 60
-0.95863527 0.38517457 -0.16363046 38
-0.95966625 0.38558882 0.12698786 26
-0.93940461 0.37744778 -0.12430673 44
-0.97329891 0.39106634 0.1661334 26
-0.9613452 0.3862634 -0.090641975 40
-0.99282998 0.39891383 0.20798181 2
-0.97296119 0.39093065 -0.054952756 54
-0.96379113 0.38724619 0.23979783 45
-0.94260418 0.37873337 -0.017731644 46
-0.98053455 0.39397359 0.28314802 68
-1.0145934 0.40765822 -0.29298314 42
-0.96487039 0.38767982 0.018150503 58
-0.9420923 0.3785277 -0.23439901 46
-0.95813507 0.38497359 0.054115377 40
-0.94546562 0.37988305 -0.19805974 37
-0.97243768 0.39072031 0.091687843 55
-0.95130348 0.3822287 -0.16237898 38
-0.97256005 0.39076948 0.12869403 21
-0.95414037 0.38336855 -0.12625664 42
-0.98612958 0.39622164 0.16832349 17
-0.9594965 0.38552061 -0.090467662 43
-0.98189974 0.3945221 0.2056921 2
-0.96184158 0.38646287 -0.054324724 52
-0.96921587 0.38942581 0.24114753 36
-0.94260418 0.37873337 -0.017731644 45
-0.98053455 0.39397359 0.28314802 65
-1.0152977 0.41619691 -0.29401845 42
-0.96954149 0.39744028 0.018290121 58
-0.94303298 0.38657376 -0.2352988 46
-0.97205627 0.39847115 0.055057425 41
-0.95187324 0.3901976 -0.19996783 33
-0.97521675 0.39976671 0.092210777 65
-0.9449563 0.38736218 -0.16175324 39
-0.9826656 0.4028202 0.1304002 38
-0.96429801 0.39529085 -0.12796281 46
-0.98699498 0.40459493 0.16894922 25
-0.95309466 0.39069828 -0.090119042 45
-0.98275465 0.40285668 0.20645534 2
-0.95912015 0.3931683 -0.054324724 51
-0.98450482 0.40357414 0.24564655 38
-0.95103878 0.38985553 -0.017941074 46
-0.97954774 0.4015421 0.28366569 70
-1.0117227 0.41473144 -0.29298314 42
-0.96954149 0.39744028 0.018290121 58
-0.9304111 0.38139972 -0.23214948 46
-0.95727217 0.39241076 0.054220051 42
-0.95368981 0.39094228 -0.20034945 33
-0.98259079 0.40278953 0.092908025 62
-0.94861186 0.38886067 -0.16237898 38
-0.95878774 0.39303204 0.1272316 45
-0.95511425 0.39152616 -0.12674412 43
-1.0052726 0.41208741 0.17207791 46
-0.96415573 0.3952325 -0.091164909 42
-0.98275465 0.40285668 0.20645534 4
-0.97020829 0.3977136 -0.054952756 57
-0.98270166 0.40283498 0.24519666 41
-0.96214038 0.39440638 -0.018150503 45
-0.98491019 0.40374032 0.2852186 64
-1.0196453 0.42589974 -0.29608899 42
-0.96688426 0.40386173 0.018290121 60
-0.92965931 0.38831311 -0.23259939 42
-0.95280558 0.39798117 0.054115377 40
-0.95107603 0.39725873 -0.20034945 31
-0.9798978 0.40929741 0.092908025 67
-0.94601196 0.39514351 -0.16237898 37
-0.96165514 0.40167758 0.12796281 41
-0.94883311 0.39632186 -0.12625664 42
-0.97517616 0.40732521 0.16738488 47
-0.96335173 0.40238619 -0.091339216 40
-0.98730749 0.41239238 0.20798181 4
-0.94911969 0.39644158 -0.053906035 52
-0.97281563 0.40633923 0.24339704 40
-0.95396787 0.39846665 -0.018045789 49
-0.99290645 0.41473103 0.28832442 62
-1.0142976 0.423666 -0.29453608 44
-0.97426504 0.40694463 0.018429741 58
-0.9404484 0.39281964 -0.2352988 46
-0.96570629 0.40336969 0.054848082 40
-0.94382972 0.394232 -0.19882298 31
-0.97622091 0.4077616 0.092559397 67
-0.95512581 0.39895028 -0.16394332 37
-0.97630894 0.40779838 0.12991272 22
-0.94883311 0.39632186 -0.12625664 41
-0.97335339 0.40656385 0.16707201 43
-0.95967478 0.40085039 -0.090990596 40
-0.98730749 0.41239238 0.20798181 4
-0.98413575 0.41106758 -0.0558948 58
-0.98360473 0.41084579 0.24609645 17
-0.93736106 0.39153007 -0.017731644 48
-0.97864568 0.40877441 0.28418332 65
-1.000651 0.4261947 -0.29143023 44
-0.97691965 0.41608709 0.018534455 65
-0.95202625 0.40548459 -0.23889802 44
-0.95919162 0.40853643 0.05463874 42
-0.94466698 0.40235013 -0.19958621 33
-0.9696843 0.41300544 0.092210777 67
-0.95049995 0.40483448 -0.16363046 37
-0.97891724 0.41693792 0.13064393 11
-0.95517486 0.4068256 -0.12747534 40
-0.97776091 0.4164454 0.16832349 42
-0.95318687 0.40597889 -0.090641975 40
-0.99524188 0.42389086 0.21027151 6
-0.96837932 0.41244963 -0.055162098 51
-0.99146992 0.42228431 0.24879587 5
-0.94564348 0.40276605 -0.017941074 46
-0.97754538 0.41635361 0.28470096 70
-1.0077604 0.42922273 -0.29350081 44
-0.95484239 0.40668401 0.018115599 61
-0.94844049 0.40395734 -0.23799822 42
-0.97389191 0.41479751 0.055476114 41
-0.95369822 0.40619668 -0.20149431 30
-0.98434871 0.41925126 0.093605265 65
-0.94868255 0.40406042 -0.16331758 34
-0.96065384 0.40915921 0.12820655 6
-0.9588275 0.40838134 -0.12796281 37
-0.98321313 0.4187676 0.1692621 38
-0.95501989 0.40675962 -0.090816282 45
-0.9880169 0.42081362 0.20874505 26
-0.97572941 0.41558015 -0.055580787 57
-0.97533387 0.41541168 0.24474674 3
-0.95668215 0.4074676 -0.018150503 45
-0.98643219 0.42013866 0.28728914 66
-1.0135995 0.44009471 -0.29608899 48
-0.96848828 0.42050785 0.018429741 60
-0.94559723 0.4105688 -0.23799822 42
-0.97097236 0.42158642 0.055476114 43
-0.95804256 0.41597241 -0.20302077 30
-0.9740876 0.42293903 0.092908025 67
-0.94221467 0.40910012 -0.16269185 34
-0.97234088 0.42218062 0.13015646 7
-0.95777398 0.41585582 -0.12820655 44
-0.9857015 0.42798164 0.17020069 40
-0.95581204 0.41500396 -0.091164909 43
-0.97425002 0.42300954 0.20645534 46
-0.945324 0.41045016 -0.054010708 51
-0.97956008 0.42531511 0.24654636 2
-0.9574827 0.41572934 -0.018220313 46
-0.99056315 0.43009254 0.28935969 66
-1.0153716 0.44086409 -0.29660663 50
-0.97032249 0.42130426 0.018464645 65
-0.9420222 0.40901655 -0.23709841 40
-0.96914035 0.42079097 0.055371441 43
-0.94903839 0.41206291 -0.20111269 33
-0.99419075 0.4316676 0.094825447 66
-0.9621461 0.41775414 -0.1661334 32
-0.97416174 0.42297122 0.1304002 8
-0.94866967 0.41190282 -0.12698786 40
-0.9857015 0.42798164 0.17020069 43
-0.96677738 0.419765 -0.092210777 42
-0.97244918 0.42222765 0.20607372 44
-0.97097236 0.42158642 -0.055476114 58
-0.97241002 0.42221063 0.24474674 2
-0.95014566 0.41254368 -0.018080693 48
-0.99765128 0.43317014 0.29143023 64
-1.0052801 0.44463947 -0.29453608 49
-0.96743232 0.42789921 0.018464645 60
-0.94990945 0.42014879 -0.23979783 42
-0.96442711 0.42657 0.055266771 41
-0.94262064 0.41692492 -0.20034945 33
-0.98029679 0.43358922 0.093779579 70
-0.96650648 0.42748973 -0.16738488 31
-0.97307557 0.43039525 0.13064393 5
-0.95492119 0.42236549 -0.12820655 34
-0.97373271 0.43068591 0.16863635 35
-0.95114297 0.42069438 -0.090990596 35
-0.97493911 0.43121949 0.20721857 23
-0.95164114 0.42091471 -0.054534066 52
-0.98020679 0.4335494 0.24744616 3
-0.94000041 0.41576597 -0.017941074 46
-0.99114621 0.43838796 0.29039496 66
-1.0017467 0.44307661 -0.29350081 50
-0.96926111 0.42870811 0.018499551 60
-0.96060264 0.42487842 -0.24249724 40
-0.96625364 0.42737791 0.055371441 43
-0.95518893 0.42248392 -0.20302077 41
-0.98029679 0.43358922 0.093779579 70
-0.96108687 0.42509258 -0.16644627 31
-1.0021226 0.44324288 0.13454376 7
-0.96581382 0.42718336 -0.12966898 34
-1.000831 0.4426716 0.17332938 6
-0.94932085 0.41988844 -0.090816282 30
-0.98032546 0.43360192 0.20836343 5
-0.96990681 0.4289937 -0.055580787 51
-0.98377115 0.43512595 0.24834597 3
-0.95097315 0.42061928 -0.018150503 45
-0.98407918 0.4352622 0.28832442 66
-1.0003903 0.45085302 -0.29401845 55
-0.96442145 0.4346427 0.018464645 65
-0.95761305 0.43157429 -0.24249724 38
-0.98145533 0.44231945 0.056418162 40
-0.95758581 0.43156204 -0.20416562 37
-0.98451167 0.44369689 0.094476826 66
-0.95089203 0.42854527 -0.16519479 31
