# .PCD v0.7 - Point Cloud Data file format
VERSION 0.7
FIELDS x y z intensity
SIZE 4 4 4 4
TYPE F F F F
COUNT 1 1 1 1
WIDTH 1300
HEIGHT 1
VIEWPOINT 0 0 0 1 0 0 0
POINTS 1300
DATA ascii
-3.9083445 -2.0258932 1.0163288 39
-4.1180215 -2.1345797 1.2428491 42
-4.1014056 -2.1259665 0.24210614 84
-4.0896368 -2.1198664 0.40300816 39
-1.8642573 -0.96633923 -0.33257967 8
-4.1081438 -2.1294596 0.56815487 35
-1.938635 -1.0048929 -0.26811257 63
-3.9793036 -2.0626752 0.7098996 43
-0.97111177 -0.50337654 -0.095697008 1
-4.1117544 -2.1313312 0.90023685 61
-0.99299049 -0.5147174 -0.058616269 1
-3.916995 -2.0303774 1.0185784 37
-4.136888 -2.1443589 1.248543 50
-4.1321635 -2.1054425 0.24304818 11
-1.8603977 -0.94791996 -0.33070245 2
-4.1264477 -2.10253 0.56864238 33
-1.9685967 -1.0030501 -0.27128115 39
-4.0112076 -2.0438123 0.71302831 43
-0.97460234 -0.49658468 -0.095697008 1
-4.1212859 -2.0999 0.89909196 81
-0.93249512 -0.47512999 -0.054848082 1
-3.9189198 -1.9967893 1.015429 31
-4.1448722 -2.1119177 1.2464725 46
-0.91400629 -0.46570945 -0.27486584 1
-1.047664 -0.53381151 0.020524031 1
-0.93588734 -0.47685844 -0.24249724 2
-3.9694185 -2.0225198 0.38976049 1
-1.8832786 -0.95957839 -0.33476976 1
-4.1352911 -2.1070361 0.56986105 35
-1.9685967 -1.0030501 -0.27128115 53
-4.0481691 -2.0626452 0.71959853 50
-0.9657262 -0.49206206 -0.094825447 1
-4.1212859 -2.0999 0.89909196 78
-0.9396134 -0.47875693 -0.055266771 1
-3.9050291 -1.9897116 1.0118299 24
-0.9193787 -0.46844685 -0.018010883 1
-4.1379871 -2.1084096 1.2444019 46
-0.96214694 -0.48180729 -0.28832442 1
-0.99057198 -0.49604151 0.019337267 1
-0.93919361 -0.47031313 -0.24249724 2
-1.939388 -0.97117317 -0.34353009 1
-4.1410251 -2.0736711 0.56864238 35
-1.9507016 -0.97683859 -0.26786882 24
-4.0695353 -2.0378716 0.72084999 48
-0.99407893 -0.49779764 -0.09726581 1
-4.1446228 -2.0754724 0.90100008 83
-0.95721972 -0.47933993 -0.056104146 1
-3.9013999 -1.9536755 1.0073308 27
-0.92620271 -0.46380776 -0.018080693 1
-4.1733341 -2.0898499 1.2506136 54
-0.9517827 -0.47661728 -0.2852186 1
-0.93919361 -0.47031313 -0.24249724 2
-0.9840076 -0.49275428 0.057674225 1
-4.1587749 -2.0825593 0.57107973 38
-1.9418267 -0.97239435 -0.26665011 15
-4.097796 -2.0520234 0.72585595 48
-0.97626388 -0.48887652 -0.095522694 1
-4.146378 -2.0763514 0.90138167 78
-0.96793485 -0.48470566 -0.056732178 1
-3.8892026 -1.9475676 1.0041815 28
-0.92262661 -0.462017 -0.018010883 1
-4.1733341 -2.0898499 1.2506136 58
-0.94121993 -0.46313763 -0.28107747 1
-0.99840683 -0.49127707 -0.25689411 1
-0.95875072 -0.47176385 0.055999473 1
-4.1660881 -2.0499694 0.57010478 38
-4.1439257 -2.0390642 0.73148757 53
-0.9617762 -0.47325253 -0.093779579 1
-4.1572495 -2.0456204 0.90061843 78
-0.94979042 -0.46735483 -0.055476114 1
-3.8974586 -1.9177874 1.0028318 30
-0.92762387 -0.45644751 -0.018045789 1
-4.1843553 -2.0589581 1.2495784 54
-0.9620204 -0.47337273 -0.28728914 1
-0.96693343 -0.47579023 -0.24879587 2
-1.0017601 -0.49292707 0.0585116 1
-4.1660881 -2.0499694 0.57010478 35
-2.0215948 -0.99474788 -0.2766434 1
-4.1527877 -2.0434248 0.7330519 52
-0.98680383 -0.48556766 -0.096219942 1
-4.1572495 -2.0456204 0.90061843 78
-0.94979042 -0.46735483 -0.055476114 1
-3.8904645 -1.9143459 1.0010322 39
-0.9348008 -0.45997903 -0.018185407 1
-4.1843553 -2.0589581 1.2495784 50
-0.94443029 -0.45655546 -0.28107747 1
-0.94699109 -0.45779338 0.018359931 1
-0.95268661 -0.4605467 -0.24429685 2
-1.0015806 -0.48418298 0.058302253 1
-1.0039711 -0.4853386 -0.21675903 1
-4.1838722 -2.022563 0.57059228 35
-4.1936293 -2.0272796 0.73774493 59
-0.99734479 -0.4821353 -0.09691719 1
-4.1749644 -2.0182567 0.90138167 81
-0.97460806 -0.47114393 -0.056732178 1
-3.9002254 -1.8854426 1.0001324 41
-0.94699109 -0.45779338 -0.018359931 1
-4.2142811 -2.0372632 1.2542371 45
-0.95834458 -0.46328187 -0.2852186 1
-0.9505918 -0.45953405 0.018429741 1
-0.96321356 -0.46563563 -0.24699625 2
-0.95842451 -0.46332052 0.05579013 1
-0.9332689 -0.45115983 -0.20149431 1
-4.1874466 -2.0242908 0.57107973 33
-4.1900721 -2.0255601 0.7371192 57
-1.0081075 -0.48733822 -0.097963057 1
-4.1802669 -2.0208201 0.90252656 83
-0.98180073 -0.47462103 -0.057150863 1
-3.8984709 -1.8845944 0.99968249 48
-0.93618894 -0.45257139 -0.018150503 1
-4.1986275 -2.0296957 1.2495784 46
-0.94759458 -0.44995099 -0.28107747 1
-0.95016402 -0.45117104 0.018359931 1
-0.98404443 -0.46725866 -0.25149527 1
-0.93276858 -0.44291109 0.054115377 1
-0.93284887 -0.44294921 -0.20073107 1
-0.95749128 -0.45465028 0.092733711 2
-0.95645314 -0.45415732 -0.16769774 1
-4.2086496 -1.9984138 0.57205468 35
-4.2023268 -1.9954114 0.73680633 56
-1.0258836 -0.48712531 -0.099357545 1
-4.2049141 -1.9966398 0.90481627 83
-1.0211742 -0.48488915 -0.059244301 1
-3.9097724 -1.8564963 0.99923259 50
-4.226656 -2.0069637 1.2537194 52
-0.94061416 -0.44663644 -0.27900693 1
-0.94293839 -0.44774008 0.018220313 1
-0.97700298 -0.46391514 -0.24969567 2
-0.94720215 -0.44976467 0.054952756 1
-1.0073349 -0.4783178 -0.21675903 1
-0.95749128 -0.45465028 0.092733711 2
-0.94217771 -0.44737887 -0.16519479 1
-4.0472612 -1.9217809 0.55011821 19
-0.96295053 -0.45724252 -0.13088767 1
-4.2041111 -1.9962587 0.7371192 49
-4.1960464 -1.9924294 0.90290815 81
-3.9132931 -1.8581681 1.0001324 52
-4.2284012 -2.0077925 1.2542371 45
-0.97164387 -0.45329145 -0.28728914 1
-0.93509108 -0.43623883 0.018010883 1
-0.96954203 -0.45231089 -0.24699625 2
-0.94300169 -0.43992931 0.054534066 1
-0.92160898 -0.42994916 -0.19767812 1
-0.89865708 -0.41924164 -0.15706021 1
-3.9019403 -1.8203338 0.52866924 35
-0.96604055 -0.45067739 -0.13088767 1
-4.2059526 -1.9621618 0.90214491 81
-3.9346805 -1.8356078 1.0023819 60
-4.2332158 -1.9748806 1.2516489 54
-0.96464103 -0.45002449 -0.2852186 1
-0.94596422 -0.44131139 0.018220313 1
-0.96600997 -0.45066312 -0.24609645 2
-0.93214184 -0.43486294 0.053906035 1
-0.94651729 -0.44156942 -0.20302077 1
-0.96310258 -0.44930679 -0.16832349 1
-3.9073372 -1.8228515 0.52940041 28
-0.94445306 -0.44060639 -0.12796281 1
-3.9293871 -1.8331382 0.68674731 5
-4.2201862 -1.968802 0.90519786 78
-1.0135911 -0.47286069 -0.058616269 1
-3.9329145 -1.8347839 1.001932 67
-4.2472215 -1.9814146 1.25579 48
-0.96073377 -0.44006112 -0.28314802 1
-0.93084157 -0.42636907 0.017871264 1
-0.99039334 -0.45364657 -0.25149527 1
-0.9097333 -0.41670051 0.052440628 1
-0.97813565 -0.44803199 -0.20912667 1
-0.97699147 -0.44750792 -0.17020069 1
-3.9235773 -1.7971823 0.52988791 23
-0.91502011 -0.4191221 -0.12357552 1
-3.9241295 -1.7974353 0.68361861 6
-0.94193196 -0.431449 -0.090641975 1
-4.2391829 -1.9417444 0.90634274 83
-0.9514975 -0.43583047 -0.054848082 1
-3.9385409 -1.8040364 1.0001324 70
-4.2679763 -1.9549333 1.2578605 52
-0.97127199 -0.44488811 -0.28625387 1
-0.92720544 -0.42470357 0.017801454 1
-0.99039334 -0.45364657 -0.25149527 1
-0.92062831 -0.42169091 0.05306866 1
-0.96385634 -0.44149137 -0.20607372 1
-0.94825643 -0.4343459 -0.16519479 1
-3.9289916 -1.7996624 0.53061914 19
-0.88614368 -0.40589535 -0.1196757 1
-3.9097619 -1.7908542 0.68111569 6
-0.92381787 -0.42315191 -0.08889886 1
-4.2552471 -1.9491026 0.90977728 100
-0.92607582 -0.42418614 -0.053382676 1
-3.9456277 -1.8072824 1.001932 67
-0.89084446 -0.40804854 -0.017103359 1
-4.2627072 -1.9525198 1.2563076 71
-0.949687 -0.4270055 -0.27900693 1
-0.93014783 -0.41822016 0.017801454 1
-0.97576272 -0.43872988 -0.24699625 2
-0.91990662 -0.41361544 0.052859318 1
-0.95617151 -0.42992112 -0.203784 1
-0.94766235 -0.42609516 -0.16456905 1
-3.9468913 -1.7746313 0.53135031 16
-0.95413381 -0.42900491 -0.12845029 1
-3.9383838 -1.7708062 0.68393147 6
-0.9303838 -0.41832626 -0.08924748 1
-4.2597976 -1.9153227 0.90786922 25
-0.93265778 -0.41934872 -0.053592019 1
-3.9688127 -1.7844878 1.0046314 71
-4.2603769 -1.9155831 1.2516489 31
-0.949687 -0.4270055 -0.27900693 1
-0.93379545 -0.41986024 0.017871264 1
-0.99353617 -0.44672132 -0.25149527 1
-0.9162634 -0.41197735 0.052649971 1
-0.98123968 -0.44119245 -0.20912667 1
-0.95486891 -0.42933545 -0.16582054 1
-3.9468913 -1.7746313 0.53135031 11
-0.93602878 -0.4208644 -0.12601291 1
-3.9437888 -1.7732364 0.68487006 6
-0.94492108 -0.42486259 -0.090641975 1
-4.2777038 -1.9233737 0.91168541 61
-0.91444182 -0.41115829 -0.052545302 1
-3.9759221 -1.7876844 1.006431 72
-0.9009667 -0.40509954 -0.017242977 1
-4.2656627 -1.9179598 1.2532018 31
-0.94911003 -0.4188053 -0.27797166 1
-0.93670386 -0.41333094 0.017871264 1
-0.98949915 -0.43662745 -0.24969567 2
-0.93373537 -0.41202104 0.053487346 1
-0.98788816 -0.43591657 -0.20988989 1
-0.94699943 -0.41787398 -0.16394332 1
-3.9537358 -1.7446296 0.53061914 7
-0.94984096 -0.41912782 -0.12747534 1
-3.97053 -1.7520403 0.68737304 6
-0.9369272 -0.4134295 -0.0895961 1
-4.2353458 -1.8688931 0.8998552 20
-0.94287175 -0.41605258 -0.054010708 1
-3.981174 -1.756737 1.0046314 72
-0.91474986 -0.40364349 -0.017452406 1
-0.96678436 -0.42660427 -0.28314802 1
-0.92206788 -0.40687263 0.017592026 1
-0.98593336 -0.435054 -0.24879587 2
-0.91180813 -0.40234542 0.052231286 1
-0.98788816 -0.43591657 -0.20988989 1
-0.85307771 -0.37642998 0.081577778 6
-0.96868646 -0.42744359 -0.16769774 1
-3.9555519 -1.7454311 0.53086287 7
-0.93531185 -0.41271669 -0.12552543 1
-3.9614937 -1.748053 0.68580872 5
-0.95150971 -0.41986418 -0.090990596 1
-4.0575261 -1.7904282 0.86207503 5
-0.94287175 -0.41605258 -0.054010708 1
-3.9776082 -1.7551637 1.0037316 77
-0.90377289 -0.39879978 -0.017242977 1
-4.287786 -1.8920329 1.25579 22
-0.94846505 -0.41063404 -0.27693638 1
-0.93222624 -0.40360352 0.017731644 1
-0.98536992 -0.42661184 -0.24789606 2
-0.91459477 -0.39597005 0.052231286 1
-0.98009741 -0.42432913 -0.20760019 1
-0.95807451 -0.41479442 0.091339216 2
-0.97164696 -0.42067054 -0.16769774 1
-3.9803927 -1.7232946 0.53256905 4
-0.93452698 -0.40459961 -0.12503795 1
-3.9772265 -1.7219238 0.68643445 5
-0.93979067 -0.40687847 -0.0895961 1
-0.93475622 -0.40469885 -0.053382676 1
-4.0040712 -1.7335461 1.0073308 27
-0.90653497 -0.39248058 -0.017242977 1
-4.0402837 -1.7492242 1.1796972 12
-0.99455869 -0.43059006 -0.29039496 1
-0.92121571 -0.39883655 0.017522216 1
-1.0068299 -0.43590283 -0.25329489 1
-0.91092908 -0.39438298 0.052021939 1
-0.98730403 -0.4274492 -0.20912667 1
-0.93613386 -0.40529528 0.08924748 2
-0.94989365 -0.41125253 -0.16394332 1
-3.9822145 -1.7240833 0.53281277 4
-0.95274389 -0.41248652 -0.12747534 1
-3.9754136 -1.721139 0.68612158 6
-0.93979067 -0.40687847 -0.0895961 1
-3.9816458 -1.7238371 0.84337574 60
-0.93109047 -0.40311179 -0.05317333 1
-3.996918 -1.7304491 1.0055312 68
-0.90653497 -0.39248058 -0.017242977 1
-4.0012813 -1.7323383 1.1683092 21
-0.96553385 -0.41004369 -0.28107747 1
-0.91293406 -0.38770559 0.017312787 2
-0.99908632 -0.4242928 -0.25059548 1
-0.92836696 -0.39425963 0.052859318 1
-0.98303586 -0.41747648 -0.20760019 1
-0.95727921 -0.4065381 0.090990596 2
-0.96728724 -0.41078833 -0.16644627 1
-3.986845 -1.6931366 0.53183782 2
-0.95925462 -0.40737703 -0.12796281 1
-4.009151 -1.7026095 0.68987602 10
-0.93527281 -0.39719242 -0.08889886 1
-3.9863551 -1.6929286 0.84184927 59
-0.93020535 -0.39504036 -0.052963987 1
-4.00352 -1.7002182 1.0041815 60
-0.91109347 -0.38692391 -0.017277882 2
-4.0203905 -1.7073827 1.1703798 21
-0.94419611 -0.40098196 -0.27486584 1
-0.93134004 -0.39552224 0.017661836 1
-1.0026737 -0.4258163 -0.25149527 1
-0.91366017 -0.38801393 0.052021939 1
-1.0264051 -0.43589455 -0.21675903 1
-0.94994372 -0.40342286 0.090293348 2
-0.96728724 -0.41078833 -0.16644627 1
-3.997808 -1.6977923 0.53330022 2
-0.94463742 -0.40116939 -0.12601291 1
-4.0109692 -1.7033817 0.69018888 10
-0.94994372 -0.40342286 -0.090293348 1
-4.0369525 -1.7144163 0.85253459 14
-0.93020535 -0.39504036 -0.052963987 1
-4.0268383 -1.7101209 1.0100303 71
-0.91293406 -0.38770559 -0.017312787 3
-1.0217999 -0.42575279 -0.29660663 1
-0.93401062 -0.38917369 0.017661836 1
-0.98396289 -0.40998727 -0.24609645 2
-0.91628009 -0.3817859 0.052021939 1
-1.0039771 -0.41832656 -0.21141636 1
-0.9673807 -0.40307799 0.091687843 2
-0.96641409 -0.40267521 -0.16582054 1
-4.0129366 -1.672068 0.53378773 4
-0.94734621 -0.39473021 -0.12601291 1
-4.0133538 -1.6722418 0.6886245 15
-0.96002424 -0.40001276 -0.090990596 1
-0.92181098 -0.38409045 -0.052335955 1
-4.0455804 -1.6856698 1.0118299 70
-0.9044767 -0.3768678 -0.017103359 3
-4.372519 -1.821895 1.2692486 52
-0.96830255 -0.40346208 -0.28107747 1
-0.95246935 -0.39686486 0.018010883 1
-1.0091466 -0.42048055 -0.25239509 1
-0.91259289 -0.38024956 0.051812597 1
-1.0076016 -0.41983676 -0.2121796 1
-0.96002424 -0.40001276 0.090990596 2
-0.9810015 -0.40875334 -0.16832349 1
-4.0129366 -1.672068 0.53378773 2
-0.93635184 -0.39014921 -0.12455047 1
-4.0170007 -1.6737614 0.68925023 11
-0.94898945 -0.39541489 -0.089944728 1
-4.349359 -1.812245 0.91588318 81
-0.93655998 -0.3902359 -0.05317333 1
-4.0599713 -1.6916659 1.015429 70
-0.90263087 -0.37609869 -0.017068453 1
-4.3618197 -1.8174369 1.2661427 63
-0.99262702 -0.40528572 -0.28728914 1
-0.93121761 -0.38021249 0.01755712 1
-1.0157379 -0.41472179 -0.25329489 1
-0.91159236 -0.37219957 0.051603254 1
-1.0033096 -0.40964738 -0.21065313 1
-0.96655118 -0.39463905 0.091339216 2
-0.98024368 -0.40022963 -0.16769774 1
-4.0358257 -1.6478117 0.53525013 2
-0.94279534 -0.38493961 -0.12503795 1
-4.0325322 -1.6464671 0.68987602 11
-0.9444164 -0.38560149 -0.08924748 1
-4.3567634 -1.7788492 0.9147383 83
-0.93563026 -0.38201416 -0.052963987 1
-4.0972304 -1.6728832 1.0217277 64
-0.90529901 -0.36963001 -0.017068453 1
-4.3729243 -1.7854478 1.2656251 60
-0.99978113 -0.40820667 -0.28935969 1
-0.92381227 -0.37718892 0.017417502 2
-1.0013047 -0.40882877 -0.24969567 2
-0.93378121 -0.38125917 0.052859318 1
-0.97059304 -0.39628932 -0.203784 1
-0.96286207 -0.39313278 0.090990596 2
-0.98755896 -0.40321642 -0.16894922 1
-4.0247989 -1.6433095 0.53378773 2
-0.95749778 -0.39094257 -0.12698786 1
-4.0398479 -1.6494539 0.69112748 11
-0.95179468 -0.388614 -0.089944728 1
-4.362216 -1.7810756 0.91588318 88
-0.94302654 -0.38503402 -0.053382676 1
-4.1856341 -1.7089779 1.0437729 102
-0.91640699 -0.37416536 -0.017277882 1
-4.3765016 -1.7869083 1.2666605 60
-1.0240579 -0.41000864 -0.29557136 1
-0.94492263 -0.37832475 0.01776655 1
-1.0004461 -0.40055501 -0.24879587 2
-0.917813 -0.36747071 0.051812597 1
-1.00972 -0.40426809 -0.21141636 1
-0.95071852 -0.38064528 0.0895961 7
-0.96827441 -0.38767424 -0.16519479 1
-4.039577 -1.6173513 0.53427517 2
-0.94539368 -0.37851334 -0.12503795 1
-4.0546494 -1.6233859 0.69175321 8
-0.97291428 -0.38953194 -0.091687843 1
-4.3815284 -1.7542608 0.91740966 78
-0.91966718 -0.36821306 -0.05191727 2
-4.1664147 -1.6681342 1.0361246 45
-0.920789 -0.36866221 -0.017312787 2
-4.3975306 -1.7606676 1.2692486 60
-0.99177581 -0.39708367 -0.28625387 1
-0.93007118 -0.37237859 0.017487312 1
-0.99320954 -0.39765769 -0.24699625 2
-0.917813 -0.36747071 0.051812597 1
-1.0024296 -0.40134919 -0.20988989 1
-0.94701922 -0.37916419 0.08924748 5
-0.98294526 -0.3935481 -0.16769774 1
-4.039577 -1.6173513 0.53427517 4
-0.94539368 -0.37851334 -0.12503795 1
-4.0564828 -1.6241201 0.69206607 10
-0.95071852 -0.38064528 -0.0895961 1
-4.3869963 -1.7564499 0.91855448 83
-0.92337555 -0.36969781 -0.052126613 2
-4.1302319 -1.6536475 1.0271266 35
-0.90408117 -0.36197278 -0.016998643 1
-4.3993239 -1.7613856 1.2697662 60
-0.96574914 -0.3788619 -0.27797166 1
-0.94754076 -0.37171876 0.01776655 1
-1.0141028 -0.39783099 -0.25149527 1
-0.92779326 -0.36397186 0.052231286 1
-0.96499878 -0.37856752 -0.20149431 1
-0.9607718 -0.37690929 0.090293348 5
-1.0187696 -0.39966172 -0.17332938 1
-4.0710974 -1.5970851 0.53695631 4
-0.96279693 -0.37770376 -0.12698786 1
-4.0566888 -1.5914328 0.69018888 6
-0.9570623 -0.37545404 -0.089944728 1
-4.4082899 -1.7293653 0.92046261 81
-0.94080842 -0.36907768 -0.052963987 1
-4.1779585 -1.6390067 1.0361246 19
-0.90844774 -0.35638264 -0.017033549 1
-4.4061179 -1.7285132 1.2682133 63
-0.95495868 -0.37462881 -0.27486584 1
-0.94381762 -0.37025818 0.01769674 1
-1.0358726 -0.40637118 -0.25689411 1
-0.94266772 -0.36980709 0.05306866 1
-1.0052071 -0.39434117 -0.20988989 1
-0.93851459 -0.3681778 0.088201612 2
-0.98566878 -0.38667631 -0.16769774 1
-0.94801313 -0.37190408 -0.12503795 1
-4.1707029 -1.6361603 0.70958674 5
-0.96448135 -0.37836453 -0.090641975 1
-0.95568287 -0.37491289 -0.053801361 1
-4.1870294 -1.6425651 1.0383741 15
-0.91217089 -0.35784322 -0.017103359 1
-4.413312 -1.7313354 1.2702838 63
-1.0115818 -0.38891771 -0.29039496 1
-0.93884999 -0.36095488 0.01755712 1
-1.0240631 -0.39371631 -0.25329489 1
-0.94516307 -0.36338204 0.05306866 1
-1.0188628 -0.39171702 -0.2121796 1
-0.95215702 -0.36607096 0.08924748 2
-0.98090273 -0.37712267 -0.16644627 1
-4.1226373 -1.5850092 0.54231858 26
-0.96534556 -0.37114149 -0.12698786 1
-4.3108091 -1.657355 0.73148757 6
-0.97075379 -0.37322077 -0.090990596 1
-4.30268 -1.6542294 0.89603907 11
-0.95075572 -0.36553222 -0.053382676 1
-4.1762857 -1.6056353 1.0329752 11
-0.92765099 -0.35664925 -0.017347692 1
-0.96830559 -0.37227952 -0.27797166 1
-0.92765099 -0.35664925 0.017347692 2
-1.0131494 -0.38952041 -0.25059548 1
-0.93024927 -0.35764819 0.052231286 1
-0.98954308 -0.38044459 -0.20607372 1
-0.95587635 -0.36750093 0.0895961 2
-0.98090273 -0.37712267 -0.16644627 1
-4.1300488 -1.5878587 0.54329354 23
-0.97831565 -0.37612805 -0.12869403 1
-4.2942152 -1.650975 0.72867173 6
-0.97075379 -0.37322077 -0.090990596 1
-4.2715278 -1.6422524 0.88955152 12
-0.92465657 -0.35549802 -0.05191727 2
-0.92765099 -0.35664925 -0.017347692 1
-1.0107228 -0.38030842 -0.28935969 1
-0.95638156 -0.35986125 0.01783636 1
-1.0122631 -0.38088799 -0.24969567 2
-0.92904609 -0.34957564 0.052021939 1
-0.99224013 -0.3733539 -0.20607372 1
-0.97712916 -0.36766803 0.091339216 2
-1.0094597 -0.37983319 -0.17082644 1
-4.141305 -1.5582644 0.54329354 26
-0.95497119 -0.35933056 -0.12528169 1
-4.2763381 -1.6090736 0.72366583 6
-0.98085862 -0.36907133 -0.091687843 1
-4.2592826 -1.6026561 0.88459051 12
-0.96082431 -0.36153293 -0.053801361 1
-4.4448376 -1.6724757 1.0964115 75
-0.92830777 -0.34929782 -0.017312787 1
-4.4551358 -1.6763505 1.2754602 60
-1.0179551 -0.38302976 -0.29143023 1
-0.96386796 -0.36267817 0.017975979 1
-1.0159109 -0.38226053 -0.25059548 1
-0.90661436 -0.34113517 0.050765876 2
-1.0289898 -0.38718182 -0.21370608 1
-0.95848167 -0.36065146 0.0895961 5
-0.99097151 -0.37287655 -0.16769774 1
-4.1357312 -1.556167 0.54256231 21
-0.97726625 -0.36771962 -0.12820655 1
-4.2486057 -1.5986387 0.7189728 5
-0.97339964 -0.3662647 -0.090990596 1
-4.2262082 -1.590211 0.87772137 11
-0.94213122 -0.35449922 -0.052754644 1
-4.4466615 -1.673162 1.0968614 82
-0.92082143 -0.34648091 -0.017173167 1
-4.4587517 -1.6777111 1.2764956 60
-0.99159962 -0.36523065 -0.28314802 1
-0.94385892 -0.34764656 0.01755712 1
-1.022212 -0.37650597 -0.25149527 1
-0.95395398 -0.35136485 0.053278003 1
-1.0021915 -0.36913192 -0.20760019 1
-0.94975847 -0.34981954 0.088550232 5
-1.0046724 -0.37004566 -0.16957496 1
-4.1464944 -1.5272565 0.54256231 52
-0.97608411 -0.35951591 -0.12771907 1
-4.2300043 -1.5580152 0.71396691 5
-0.9759329 -0.35946023 -0.090990596 1
-4.2187839 -1.5538825 0.87390518 12
-0.96332484 -0.35481638 -0.053801361 1
-4.4728632 -1.6474662 1.1004605 85
-0.92134136 -0.33935282 -0.017138263 1
-4.4721684 -1.6472102 1.2770132 67
-0.95171809 -0.35054129 -0.27175999 1
-0.93635303 -0.34488198 0.017417502 2
-1.0185547 -0.37515891 -0.25059548 1
-0.93896061 -0.34584242 0.052440628 1
-0.99482244 -0.36641771 -0.20607372 1
-0.95723689 -0.35257402 0.08924748 5
-0.99355054 -0.36594921 -0.16769774 1
-4.1409063 -1.5251982 0.54183108 33
-0.98353511 -0.36226031 -0.12869403 1
-4.1910777 -1.5436776 0.70739663 6
-0.98341131 -0.36221471 -0.091687843 1
-4.1727276 -1.5369188 0.86436474 9
-0.94833148 -0.34929392 -0.052963987 1
-4.4801779 -1.6501603 1.1022601 85
-0.92697078 -0.34142625 -0.017242977 1
-4.4776068 -1.6492134 1.2785661 63
-1.0122993 -0.36484939 -0.28832442 1
-0.96131283 -0.34647301 0.01783636 1
-1.0248156 -0.36936045 -0.25149527 1
-0.9601416 -0.34605089 0.053487346 1
-1.0490711 -0.37810251 -0.21675903 1
-0.95967495 -0.34588271 0.08924748 7
-1.0183814 -0.36704147 -0.17145218 1
-4.1589231 -1.4989446 0.54280603 33
-0.97857016 -0.35269284 -0.12771907 1
-0.97841859 -0.35263821 -0.090990596 1
-0.946989 -0.34131047 -0.052754644 1
-4.4952555 -1.6201643 1.10316 81
-0.93685669 -0.33765861 -0.017382598 1
-4.5071855 -1.6244642 1.2837424 65
-0.99049038 -0.35698909 -0.28211275 1
-0.95755035 -0.34511694 0.01776655 1
-1.0174824 -0.36671746 -0.24969567 2
-0.93759423 -0.33792445 0.052231286 1
-1.0232136 -0.36878309 -0.21141636 1
-0.95967495 -0.34588271 0.08924748 7
-1.0109479 -0.36436233 -0.17020069 1
-4.1533208 -1.4969254 0.54207486 40
-0.94869018 -0.34192359 -0.12381925 1
-4.1887441 -1.5096925 0.70520657 63
-0.97841859 -0.35263821 -0.090990596 1
-4.164886 -1.5010936 0.86054856 83
-0.95826262 -0.34537369 -0.053382676 1
-4.4915891 -1.6188428 1.1022601 82
-0.94814414 -0.34172681 -0.017592026 1
-4.5180902 -1.6283942 1.2868483 65
-1.0037665 -0.35426986 -0.2852186 1
-0.95604676 -0.33742762 0.01769674 1
-1.0162169 -0.35866407 -0.24879587 2
-0.93604803 -0.33036923 0.052021939 1
-0.99971837 -0.35284108 -0.20607372 1
-0.9581902 -0.33818412 0.08889886 5
-1.0170678 -0.35896441 -0.17082644 1
-4.1893644 -1.4785963 0.54548717 26
-0.96965623 -0.34223095 -0.12625664 1
-4.1968017 -1.4812212 0.70489371 53
-0.98825109 -0.34879383 -0.091687843 1
-4.1840062 -1.4767053 0.86245668 57
-0.96053219 -0.33901069 -0.053382676 1
-4.5132523 -1.5929096 1.1049596 82
-0.93153274 -0.32877561 -0.017242977 1
-4.525147 -1.5971076 1.285813 65
-1.0183402 -0.3594135 -0.28935969 1
-0.95981818 -0.33875871 0.01776655 1
-1.0345933 -0.36514986 -0.25329489 1
-0.93981481 -0.33169869 0.052231286 1
-1.0515556 -0.37113655 -0.21675903 1
-0.95443261 -0.33685791 0.088550232 7
-1.0021657 -0.35370484 -0.16832349 1
-4.2080836 -1.485203 0.54792458 38
-0.96965623 -0.34223095 -0.12625664 1
-4.2117038 -1.4864808 0.70739663 57
-0.9581902 -0.33818412 -0.08889886 1
-4.1877093 -1.4780121 0.86321992 69
-0.96429896 -0.34034014 -0.053592019 1
-4.5242782 -1.596801 1.107659 81
-0.92776138 -0.32744455 -0.017173167 1
-4.526969 -1.5977505 1.2863307 68
-1.0063365 -0.3469024 -0.2852186 1
-0.95471346 -0.32910705 0.01762693 1
-1.0298728 -0.35501578 -0.25149527 1
-0.95355034 -0.32870606 0.052859318 1
-1.0542479 -0.36341834 -0.21675903 1
-0.96441072 -0.33244982 0.08924748 2
-0.99352634 -0.34248653 -0.16644627 1
-4.2169809 -1.4536697 0.54768085 38
-0.99841291 -0.34417099 -0.12966898 1
-4.2299571 -1.4581429 0.70864815 51
-1.0020829 -0.34543616 -0.092733711 1
-4.2021432 -1.4485548 0.86398315 78
-0.95921499 -0.33065876 -0.05317333 1
-4.548758 -1.5680393 1.1108083 78
-0.93391776 -0.32193837 -0.017242977 1
-4.5403857 -1.5651531 1.2868483 68
-0.9953782 -0.3431249 -0.28211275 1
-0.95471346 -0.32910705 0.01762693 1
-1.0188186 -0.35120526 -0.24879587 2
-0.94599748 -0.32610247 0.052440628 1
-1.028263 -0.35446087 -0.21141636 1
-0.97571236 -0.33634573 0.090293348 2
-1.0047315 -0.34634915 -0.16832349 1
-4.2169809 -1.4536697 0.54768085 38
-1.0096731 -0.34805262 -0.13113141 1
-4.2374272 -1.4607179 0.7098996 35
-0.99078131 -0.34154025 -0.091687843 1
-4.1965747 -1.4466354 0.86283827 50
-0.96676785 -0.33326238 -0.053592019 1
-4.543231 -1.5661341 1.1094586 82
-0.93391776 -0.32193837 -0.017242977 1
-4.5531702 -1.5695603 1.2904718 68
-1.1550565 -0.38961735 -0.32662964 1
-0.96066481 -0.32404622 0.01769674 1
-1.0211256 -0.34444052 -0.24879587 2
-0.94813943 -0.31982124 0.052440628 1
-1.0119884 -0.34135842 -0.20760019 1
-0.98924893 -0.33368808 0.091339216 5
-1.0144936 -0.34220344 -0.16957496 1
-4.2415767 -1.4307456 0.54963076 35
-0.98938775 -0.3337349 -0.12820655 1
-4.2226892 -1.4243745 0.7058323 76
-0.98547316 -0.33241445 -0.090990596 1
-4.2302604 -1.4269285 0.86779928 100
-0.97652686 -0.32939672 -0.054010708 1
-4.5590577 -1.5378366 1.1108083 77
-0.94740117 -0.31957221 -0.017452406 1
-4.5854459 -1.5467377 1.2966834 72
-1.0232592 -0.34516022 -0.28935969 1
-0.96824402 -0.32660282 0.01783636 1
-1.0322046 -0.34817767 -0.25149527 1
-0.94056946 -0.31726778 0.052021939 1
-1.0194296 -0.34386843 -0.20912667 1
-0.98547316 -0.33241445 0.090990596 5
-1.0257241 -0.34599167 -0.17145218 1
-4.26791 -1.4396282 0.55304307 33
-0.99691159 -0.33627281 -0.1291815 1
-4.2357912 -1.4287941 0.70802242 71
-0.99302465 -0.33496168 -0.091687843 1
-4.2228193 -1.4244184 0.86627287 68
-0.97274184 -0.32811999 -0.053801361 1
-4.5645971 -1.5397052 1.1121581 81
-0.94740117 -0.31957221 -0.017452406 1
-4.5744629 -1.5430329 1.2935776 65
-1.0110238 -0.3329944 -0.2852186 1
-0.95536172 -0.31466135 0.01755712 1
-1.0494771 -0.34565955 -0.2550945 1
-0.96557981 -0.31802681 0.053278003 1
-1.0218641 -0.33656481 -0.20912667 1
-0.96890271 -0.31912127 0.08924748 2
-1.0056589 -0.33122742 -0.16769774 1
-4.30827 -1.4189872 0.55694288 40
-0.99552149 -0.32788849 -0.12869403 1
-4.2552881 -1.4015369 0.70958674 63
-0.98404181 -0.32410753 -0.090641975 1
-4.2478218 -1.3990778 0.86932576 92
-0.97506487 -0.32115084 -0.053801361 1
-4.584753 -1.5100505 1.1144075 78
-0.94206643 -0.31028235 -0.017312787 1
-4.5853872 -1.5102595 1.2935776 65
-1.040382 -0.34266394 -0.29350081 1
-0.97815365 -0.32216817 0.017975979 1
-1.0161604 -0.33468622 -0.24699625 2
-0.95799178 -0.31552759 0.052859318 1
-1.0591583 -0.34884819 -0.21675903 1
-0.97079509 -0.31974456 0.089421794 7
-1.0131638 -0.33369926 -0.16894922 1
-4.3120408 -1.4202292 0.55743039 35
-1.014376 -0.33409852 -0.13113141 1
-4.2665453 -1.4052447 0.71146393 52
-1.01432 -0.33408007 -0.093430959 1
-4.2366333 -1.3953928 0.8670361 88
-0.95988876 -0.31615239 -0.052963987 1
-4.5940075 -1.5130987 1.116657 81
-0.94586509 -0.31153348 -0.017382598 1
-4.589057 -1.5114683 1.2946129 65
-1.0169449 -0.3272886 -0.28625387 1
-0.95367432 -0.30692592 0.017487312 1
-1.0295452 -0.33134383 -0.24969567 2
-0.96011728 -0.30899948 0.052859318 1
-1.0203936 -0.32839853 -0.20836343 1
-0.97105247 -0.31251881 0.08924748 10
-1.0266942 -0.33042625 -0.17082644 1
-4.3234978 -1.3914535 0.55767411 33
-0.99773026 -0.32110465 -0.12869403 1
-1.0089842 -0.32472658 -0.092733711 1
-0.97342587 -0.31328264 -0.053592019 1
-4.6134753 -1.4847785 1.1189065 75
-0.95557785 -0.30753854 -0.017522216 1
-4.6102729 -1.4837478 1.2977186 65
-1.0206228 -0.32847229 -0.28728914 1
-0.97651678 -0.31427744 0.017906168 1
-1.0406754 -0.33492592 -0.25239509 1
-0.96011728 -0.30899948 0.052859318 1
-1.0615084 -0.3416307 -0.21675903 1
-0.98243201 -0.31618115 0.090293348 5
-1.0342157 -0.33284697 -0.17207791 1
-4.3442836 -1.3981432 0.56035525 19
-0.99395096 -0.31988835 -0.12820655 1
-4.2797728 -1.3773812 0.71208966 11
-1.0203637 -0.3283889 -0.093779579 1
-4.2796726 -1.3773491 0.87390518 22
-0.95821607 -0.30838761 -0.052754644 1
-4.5986352 -1.4800024 1.1153073 63
-0.94415659 -0.30386278 -0.017312787 1
-4.6286621 -1.4896662 1.3028951 76
-1.0339494 -0.32481298 -0.29039496 1
-0.98250258 -0.30865109 0.017975979 1
-1.0318333 -0.32414824 -0.24969567 2
-0.95081842 -0.29869756 0.052231286 1
-0.98145521 -0.30832207 -0.19996783 1
-0.97130978 -0.30513489 0.089073166 7
-1.032745 -0.32443464 -0.17145218 1
-4.3615141 -1.3701603 0.5613302 4
-1.0037353 -0.3153213 -0.1291815 1
-1.0378379 -0.32603455 -0.095174074 1
-4.2854381 -1.3462613 0.87314194 74
-0.97558922 -0.30647928 -0.053592019 1
-4.5400667 -1.4262522 1.0986609 17
-0.94625491 -0.29726398 -0.017312787 1
-4.631577 -1.455 1.3008245 79
-1.0376354 -0.32597098 -0.29143023 1
-0.97487152 -0.30625379 0.01783636 1
-1.0504249 -0.32998875 -0.25419468 1
-0.95844018 -0.30109194 0.052649971 1
-1.0264074 -0.32244369 -0.20912667 1
-0.97130978 -0.30513489 0.089073166 7
-1.032745 -0.32443464 -0.17145218 1
-1.0188861 -0.32008088 -0.13113141 1
-4.298707 -1.3504297 0.71365404 42
-0.99221861 -0.31170335 -0.090990596 1
-4.2723269 -1.3421425 0.87047064 61
-0.9794001 -0.30767646 -0.053801361 1
-4.4898691 -1.4104829 1.0865136 15
-0.96533263 -0.3032572 -0.017661836 1
-4.6389494 -1.457316 1.3028951 76
-1.0066929 -0.30835336 -0.28211275 1
-0.96174192 -0.29458475 0.01755712 1
-1.0453062 -0.32018074 -0.25239509 1
-0.96820897 -0.29656562 0.05306866 1
-1.013671 -0.31049082 -0.20607372 1
-0.97537339 -0.29876012 0.08924748 7
-1.0123751 -0.31009385 -0.16769774 1
-4.3237557 -1.3243808 0.55523676 52
-1.0249465 -0.31394452 -0.13161889 1
-4.319593 -1.3231056 0.71553123 41
-1.0325242 -0.31626558 -0.094476826 1
-4.2949619 -1.3155611 0.87314194 57
-0.98539609 -0.30183008 -0.054010708 1
-4.4644451 -1.3674743 1.0779655 13
-4.6437173 -1.4223861 1.3013421 61
-1.0251644 -0.31401122 -0.28728914 1
-0.96556598 -0.29575604 0.01762693 1
-1.0341264 -0.31675637 -0.24969567 2
-0.98348641 -0.30124515 0.053906035 1
-1.0662318 -0.32659033 -0.21675903 1
-0.98870862 -0.3028447 0.090467662 7
-1.0274851 -0.31472209 -0.17020069 1
-4.3218579 -1.3237994 0.55499297 35
-1.0021698 -0.30696797 -0.12869403 1
-4.3479242 -1.3317837 0.72022426 40
-1.0363343 -0.31743261 -0.094825447 1
-4.3212423 -1.3236108 0.87848461 48
-0.98539609 -0.30183008 -0.054010708 1
-4.4122729 -1.3514937 1.0653682 16
-0.96365398 -0.2951704 -0.017592026 1
-4.6511059 -1.4246491 1.3034127 65
-1.0198742 -0.30481315 -0.2852186 1
-0.98671627 -0.29490313 0.017975979 1
-1.043727 -0.31194213 -0.25149527 1
-0.95489621 -0.28539297 0.052231286 1
-1.011999 -0.30245945 -0.20531048 1
-0.98883814 -0.29553729 0.090293348 5
-1.0333889 -0.30885231 -0.17082644 1
-4.3345723 -1.2954879 0.55548048 30
-0.99282438 -0.29672867 -0.1272316 1
-4.425024 -1.3225214 0.73148757 56
-1.0422888 -0.31151229 -0.095174074 1
-4.4091554 -1.3177787 0.89451259 73
-0.97977328 -0.29282805 -0.053592019 1
-4.3690901 -1.3058043 1.052771 13
-0.96180886 -0.28745899 -0.017522216 1
-4.6773539 -1.3979361 1.3080715 63
-1.0198742 -0.30481315 -0.2852186 1
-0.98288435 -0.29375789 0.017906168 1
-1.0362586 -0.30971 -0.24969567 2
-0.97785962 -0.29225612 0.053487346 1
-1.0308094 -0.30808136 -0.20912667 1
-0.98311126 -0.29382569 0.089770414 7
-1.0447448 -0.31224629 -0.17270365 1
-4.355494 -1.3017408 0.55816162 26
-1.0156479 -0.30355003 -0.13015646 1
-4.4117756 -1.3185618 0.72929746 47
-1.0231993 -0.30580693 -0.093430959 1
-4.4147983 -1.3194653 0.89565742 67
-0.97211879 -0.29054034 -0.05317333 1
-0.96947271 -0.28974947 -0.017661836 1
-4.681056 -1.3990425 1.3091067 70
-1.0590726 -0.30849099 -0.29557136 1
-0.9849112 -0.28688896 0.017906168 1
-1.0571053 -0.30791792 -0.25419468 1
-0.98371124 -0.28653941 0.053696692 1
-1.0140859 -0.29538706 -0.20531048 1
-0.98705149 -0.28751236 0.089944728 7
-1.0355198 -0.30163044 -0.17082644 1
-4.3854403 -1.2774088 0.56084269 19
-1.0177423 -0.29645213 -0.13015646 1
-4.5157013 -1.3153518 0.74494094 39
-1.0214835 -0.29754186 -0.093082331 1
-4.5897751 -1.3369284 0.92923981 37
-0.99329907 -0.28933221 -0.054220051 1
-4.6811991 -1.3635587 1.1256551 71
-0.96763206 -0.28185579 -0.017592026 1
-4.6869993 -1.3652482 1.3080715 66
-1.0108486 -0.29444411 -0.28211275 1
-0.96955198 -0.28241503 0.01762693 1
-1.1020089 -0.32099763 -0.26499236 1
-0.99138153 -0.28877366 0.054115377 1
-1.0367049 -0.30197561 -0.20988989 1
-0.9832257 -0.28639796 0.0895961 5
-1.0544854 -0.3071548 -0.17395513 1
-4.3949695 -1.2801846 0.56206143 47
-1.0329894 -0.30089337 -0.13210636 1
-4.6939774 -1.3672808 0.77435058 48
-1.0367866 -0.30199942 -0.094476826 1
-4.6877909 -1.3654788 0.94908392 75
-1.0048045 -0.29268354 -0.054848082 1
-4.6905541 -1.3662837 1.1279045 67
-0.97147191 -0.28297427 -0.017661836 1
-4.6981277 -1.3684899 1.3111773 77
-1.0128294 -0.28755671 -0.28211275 1
-0.98491752 -0.27963212 0.017871264 1
-1.0479288 -0.29752192 -0.25149527 1
-0.97795355 -0.27765495 0.053278003 1
-1.0462908 -0.29705685 -0.21141636 1
-0.99281889 -0.28187543 0.090293348 10
-1.037549 -0.29457495 -0.17082644 1
-4.3806663 -1.2437336 0.55913657 42
-1.0388328 -0.29493943 -0.13259384 1
-4.7164774 -1.3390751 0.7765407 49
-1.0464848 -0.29711193 -0.095174074 1
-4.6780906 -1.3281766 0.94526774 74
-1.0029308 -0.28474635 -0.05463874 1
-4.6997452 -1.3343246 1.1279045 75
-0.96568084 -0.27417055 -0.017522216 1
-4.711051 -1.3375344 1.3122126 73
-1.0128294 -0.28755671 -0.28211275 1
-0.99261218 -0.28181675 0.018010883 1
-1.0591767 -0.30071536 -0.25419468 1
-0.9741109 -0.27656397 0.05306866 1
-1.0198501 -0.28955001 -0.20607372 1
-0.99665219 -0.28296375 0.090641975 5
-1.0603523 -0.30104911 -0.17458086 1
-4.3902144 -1.2464445 0.56035525 42
-1.0159174 -0.28843343 -0.12966898 1
-4.7145772 -1.3385357 0.77622783 48
-1.0656512 -0.30255356 -0.09691719 1
-4.6875339 -1.3308576 0.94717586 78
-0.98371756 -0.27929142 -0.053592019 1
-4.6997452 -1.3343246 1.1279045 70
-0.97722286 -0.27744749 -0.017731644 1
-4.7222013 -1.3407003 1.3153183 66
-1.0148612 -0.28030175 -0.28211275 1
-0.98303825 -0.27151233 0.017801454 1
-1.091356 -0.30142939 -0.26139313 1
-1.0107182 -0.27915746 0.054952756 1
-1.0332505 -0.28538081 -0.20836343 1
-0.98712856 -0.27264208 0.0895961 7
-1.0472467 -0.28924653 -0.17207791 1
-4.4028482 -1.2160541 0.56084269 42
-1.033263 -0.28538427 -0.13161889 1
-4.7221308 -1.3042389 0.77591497 48
-1.0485841 -0.2896159 -0.095174074 1
-4.7177534 -1.30303 0.95137364 76
-1.008793 -0.27862576 -0.054848082 1
-4.7166867 -1.3027353 1.1297042 67
-0.95219779 -0.26299432 -0.017242977 1
-4.7298121 -1.3063605 1.3148007 66
-1.0446553 -0.2885308 -0.29039496 1
-0.9946034 -0.2747066 0.018010883 1
-1.091356 -0.30142939 -0.26139313 1
-0.97606504 -0.26958635 0.05306866 1
-1.0332505 -0.28538081 -0.20836343 1
-0.9986515 -0.27582467 0.090641975 7
-1.0472467 -0.28924653 -0.17207791 1
-4.4296365 -1.2234529 0.56425506 33
-1.0409167 -0.28749821 -0.13259384 1
-4.7430754 -1.3100239 0.77935648 48
-1.0485841 -0.2896159 -0.095174074 1
-4.7101836 -1.3009393 0.94984716 74
-1.0241945 -0.28287956 -0.055685457 1
-4.7242002 -1.3048106 1.1315038 67
-0.9868933 -0.27257711 -0.017871264 1
-4.7298121 -1.3063605 1.3148007 56
-1.0279874 -0.27621773 -0.2852186 1
-0.98104739 -0.26360506 0.017731644 1
-1.1084896 -0.29784849 -0.26499236 1
-1.0165001 -0.27313113 0.055162098 1
-1.0352175 -0.27816045 -0.20836343 1
-1.0120976 -0.27194819 0.091687843 5
-1.0339788 -0.27782762 -0.16957496 1
-4.4284844 -1.189923 0.56303638 59
-1.0582352 -0.28434524 -0.13454376 1
-4.7425671 -1.2743163 0.77779216 48
-1.0390356 -0.27918634 -0.094128199 1
-4.7267351 -1.2700623 0.95137364 76
-0.98370981 -0.26432046 -0.053382676 1
-4.7463684 -1.2753377 1.1346531 71
-0.98104739 -0.26360506 -0.017731644 1
-4.7388167 -1.2733086 1.3148007 45
-1.0354501 -0.27822295 -0.28728914 1
-0.99649692 -0.26775631 0.018010883 1
-1.0369742 -0.27863246 -0.24789606 2
-0.98563868 -0.26483873 0.053487346 1
-1.0503856 -0.28223607 -0.21141636 1
-0.99670446 -0.26781207 0.090293348 7
-1.0377942 -0.27885279 -0.17020069 1
-4.4150648 -1.1863172 0.5613302 35
-1.0428984 -0.28022429 -0.13259384 1
-4.7521057 -1.2768793 0.77935648 48
-1.0775183 -0.28952658 -0.09761443 1
-4.7343192 -1.2721002 0.95290011 76
-0.98756748 -0.26535702 -0.053592019 1
-4.7388406 -1.273315 1.1328535 71
-0.98490977 -0.26464289 -0.017801454 1
-4.750011 -1.2763164 1.3179066 49
-1.0485342 -0.27410004 -0.29039496 1
-0.99442703 -0.25995573 0.017941074 1
-1.0577006 -0.27649623 -0.25239509 1
-0.97582453 -0.2550928 0.052859318 1
-1.0142938 -0.26514918 -0.203784 1
-1.0177804 -0.26606062 0.092036463 5
-1.0396682 -0.27178237 -0.17020069 1
-4.4441633 -1.1617602 0.56401134 30
-1.0255761 -0.2680985 -0.13015646 1
-4.7683315 -1.2465018 0.780608 46
-1.0756088 -0.2811777 -0.09726581 1
-4.759963 -1.2443142 0.95633471 70
-1.0086741 -0.2636801 -0.05463874 1
-4.7587099 -1.2439866 1.1355529 73
-0.98668832 -0.25793272 -0.017801454 1
-4.7660646 -1.2459092 1.3199772 49
-1.0634866 -0.27800876 -0.29453608 1
-1.0176432 -0.26602474 0.018359931 1
-1.0727837 -0.28043914 -0.25599429 1
-0.97968918 -0.25610307 0.05306866 1
-1.0066961 -0.26316303 -0.20225753 1
-0.99850428 -0.26102158 0.090293348 7
-1.035846 -0.27078316 -0.16957496 1
-4.4441633 -1.1617602 0.56401134 28
-1.0447817 -0.27311909 -0.13259384 1
-4.762598 -1.245003 0.77966934 37
-1.0717536 -0.28016987 -0.09691719 1
-4.7770581 -1.2487831 0.95976925 68
-1.0164034 -0.26570064 -0.055057425 1
-4.768137 -1.2464509 1.1378025 75
-0.95960277 -0.25085223 -0.017312787 1
-4.7698026 -1.2468864 1.3210124 49
-1.0204636 -0.25916475 -0.28211275 1
-1.0000939 -0.25399151 0.018010883 1
-1.1124909 -0.28253672 -0.26499236 1
-0.9930681 -0.25220716 0.053696692 1
-1.04276 -0.26482731 -0.20912667 1
-1.0118887 -0.25698701 0.091339216 5
-1.0645155 -0.27035248 -0.17395513 1
-4.4829497 -1.1385242 0.56791115 47
-1.058207 -0.26875034 -0.13405629 1
-4.7252231 -1.2000538 0.77216053 11
-1.0736835 -0.27268088 -0.09691719 1
-4.7799511 -1.2139529 0.95862442 70
-1.0221052 -0.25958166 -0.055266771 1
-4.7804999 -1.2140924 1.1387023 78
-0.97683597 -0.24808472 -0.017592026 1
-4.7802634 -1.2140323 1.3215301 56
-1.0391878 -0.26392007 -0.28728914 1
-1.0039703 -0.25497597 0.018080693 1
-1.1238236 -0.28541484 -0.26769176 1
-1.0046829 -0.25515696 0.054324724 1
-1.0465658 -0.26579383 -0.20988989 1
-1.019613 -0.25894874 0.092036463 2
-1.0109068 -0.25673762 -0.16519479 1
-4.4406214 -1.1277742 0.56254888 28
-1.0466629 -0.26581854 -0.13259384 1
-4.6639562 -1.184494 0.76214874 9
-1.0350617 -0.26287219 -0.093430959 1
-4.7837567 -1.2149194 0.9593876 88
-1.0259768 -0.26056489 -0.055476114 1
-4.7993879 -1.2188892 1.1432012 87
-0.97683597 -0.24808472 -0.017592026 1
-4.7933702 -1.217361 1.3251535 38
-1.0334576 -0.25498939 -0.2852186 1
-1.0095655 -0.24909437 0.018150503 1
-1.0879003 -0.26842225 -0.25869372 1
-0.99088359 -0.24448489 0.053487346 1
-1.0483507 -0.25866398 -0.20988989 1
-1.0252209 -0.25295705 0.092385091 5
-1.0740025 -0.26499316 -0.1752066 1
-4.4597588 -1.1003752 0.56401134 52
-1.0523027 -0.25963908 -0.13308132 1
-4.639307 -1.1446759 0.75682992 9
-1.0484333 -0.2586844 -0.094476826 1
-4.778573 -1.1790375 0.9567163 24
-1.0316048 -0.25453222 -0.055685457 1
-4.7716255 -1.1773232 1.1346531 35
-0.99403375 -0.24526215 -0.017871264 1
-4.7734118 -1.1777639 1.3173889 24
-1.0334576 -0.25498939 -0.2852186 1
-1.0173314 -0.25101048 0.018290121 1
-1.0954683 -0.27028951 -0.26049331 1
-0.98312712 -0.24257112 0.05306866 1
-1.0407263 -0.2567828 -0.20836343 1
-1.0329584 -0.25486618 0.093082331 5
-1.0394809 -0.25647551 -0.16957496 1
-4.4578319 -1.0998996 0.56376761 54
-1.0523027 -0.25963908 -0.13308132 1
-4.5836892 -1.130953 0.74775672 8
-1.0252209 -0.25295705 -0.092385091 1
-4.7938218 -1.1827999 0.95976925 42
-1.0122137 -0.24974777 -0.05463874 1
-4.8075733 -1.1861929 1.1432012 51
-0.97461903 -0.24047187 -0.017522216 1
-4.8127995 -1.1874822 1.3282593 28
-1.0464854 -0.25046635 -0.28832442 1
-1.0035008 -0.24017841 0.018010883 1
-1.074586 -0.25719196 -0.2550945 1
-0.99645102 -0.2384911 0.053696692 1
-1.0424936 -0.24951096 -0.20836343 1
-1.0269618 -0.24579357 0.092385091 2
-1.0143505 -0.24277516 -0.16519479 1
-4.4654016 -1.0687516 0.56376761 57
-1.0425062 -0.24951397 -0.13161889 1
-4.5453658 -1.0878903 0.74024791 8
-1.0579644 -0.25321373 -0.095174074 1
-4.7981439 -1.1483902 0.95900601 35
-1.0178174 -0.24360494 -0.054848082 1
-4.8005757 -1.1489723 1.1396021 48
-0.97627407 -0.23366193 -0.017522216 1
-4.7946692 -1.1475586 1.3210124 49
-1.0464854 -0.25046635 -0.28832442 1
-1.0112799 -0.24204025 0.018150503 1
-1.101119 -0.26354238 -0.26139313 1
-1.0081054 -0.24128047 0.054324724 1
-1.0692242 -0.25590867 -0.21370608 1
-0.99208385 -0.23744586 0.08924748 2
-1.0681418 -0.2556496 -0.17395513 1
-4.4885683 -1.0742962 0.56669247 35
-1.0463674 -0.25043809 -0.13210636 1
-4.6202898 -1.1058224 0.75244975 11
-1.0385878 -0.24857613 -0.093430959 1
-4.8153276 -1.152503 0.96244055 32
-1.045011 -0.25011349 -0.056313489 1
-4.8403749 -1.1584978 1.14905 67
-0.99183226 -0.23738563 -0.017801454 1
-4.8247299 -1.1547533 1.3292946 35
-1.0670272 -0.24751988 -0.29350081 1
-1.0051532 -0.23316686 0.018010883 1
-1.0763553 -0.24968374 -0.2550945 1
-1.0253301 -0.23784733 0.055162098 1
-1.048035 -0.24311423 -0.20912667 1
-1.0325345 -0.23951852 0.092733711 2
-1.0314149 -0.23925883 -0.16769774 1
-4.8517685 -1.1254718 0.61154038 30
-1.0635602 -0.24671562 -0.13405629 1
-4.756824 -1.1034474 0.77341199 11
-1.0441796 -0.24221987 -0.093779579 1
-4.7199826 -1.0949013 0.9418332 10
-1.0584053 -0.24551982 -0.05694152 1
-4.8692265 -1.1295216 1.1539989 78
-0.99736124 -0.23135936 -0.017871264 1
-4.8477287 -1.1245348 1.3334358 52
-1.070791 -0.24839297 -0.29453608 1
-1.0051532 -0.23316686 0.018010883 1
-1.0763553 -0.24968374 -0.2550945 1
-1.0019829 -0.23243146 0.053906035 1
-1.05186 -0.24400152 -0.20988989 1
-1.0519429 -0.24402076 0.094476826 2
-1.0775976 -0.24997191 -0.1752066 1
-4.838232 -1.1223319 0.60983419 26
-1.0596927 -0.24581848 -0.13356879 1
-4.7106409 -1.0927343 0.76590312 11
-1.0597063 -0.24582165 -0.095174074 1
-4.6989455 -1.0900214 0.93763542 12
-1.0233845 -0.237396 -0.055057425 1
-4.8711247 -1.129962 1.1544489 71
-0.99736124 -0.23135936 -0.017871264 1
-4.8740749 -1.1306463 1.3406826 60
-1.072499 -0.24091145 -0.29453608 1
-1.0223651 -0.22965004 0.018290121 1
-1.0780722 -0.24216333 -0.2550945 1
-0.99578637 -0.22367977 0.053487346 1
-1.0190583 -0.22890727 -0.20302077 1
-1.0419573 -0.23405094 0.093430959 2
-1.0523336 -0.23638175 -0.17082644 1
-1.0536357 -0.23667425 -0.13259384 1
-4.614078 -1.0364431 0.74900824 11
-1.0613967 -0.23841757 -0.095174074 1
-4.6585526 -1.0464333 0.92809498 11
-1.0445039 -0.234623 -0.056104146 1
-4.7020683 -1.056208 1.112608 28
-0.98724568 -0.2217613 -0.017661836 1
-4.891274 -1.0987086 1.3432709 40
-1.0498804 -0.23583071 -0.28832442 1
-1.0223651 -0.22965004 0.018290121 1
-1.0856776 -0.24387172 -0.25689411 1
-1.0152733 -0.22805706 0.054534066 1
-1.0880172 -0.24439724 -0.21675903 1
-1.0769483 -0.24191087 0.096568562 2
-1.0947353 -0.24590629 -0.17770955 1
-4.5263724 -1.0167421 0.56961733 9
-1.061383 -0.2384145 -0.13356879 1
-4.5312018 -1.0178269 0.73555487 19
-1.0536209 -0.23667093 -0.094476826 1
-4.545537 -1.021047 0.90557951 36
-1.0756831 -0.24162668 -0.057778895 1
-4.5214386 -1.0156338 1.0698673 34
-0.99504995 -0.22351435 -0.017801454 1
-4.5444555 -1.020804 1.2480254 19
-1.0741547 -0.23341818 -0.29453608 1
-1.0239434 -0.22250704 0.018290121 1
-1.0721194 -0.23297589 -0.25329489 1
-1.0246476 -0.22266008 0.054952756 1
-1.0513273 -0.22845769 -0.20912667 1
-1.0435658 -0.22677107 0.093430959 2
-1.0578189 -0.22986832 -0.17145218 1
-4.5275407 -0.98385298 0.5688861 19
-1.0707809 -0.23268501 -0.13454376 1
-4.5324063 -0.98491025 0.73461622 45
-1.0435658 -0.22677107 -0.093430959 1
-4.5429616 -0.98720402 0.90367138 64
-1.0656335 -0.23156647 -0.057150863 1
-4.5322275 -0.98487139 1.070767 55
-1.0004944 -0.21741147 -0.017871264 1
-4.5250421 -0.98330998 1.2407784 23
-1.0968083 -0.23834088 -0.30074772 1
-1.0239434 -0.22250704 0.018290121 1
-1.0721194 -0.23297589 -0.25329489 1
-1.0168407 -0.22096361 0.054534066 1
-1.0551643 -0.22929147 -0.20988989 1
-1.0708231 -0.23269419 0.095871314 2
-1.0925647 -0.23741874 -0.17708382 1
-4.5275407 -0.98385298 0.5688861 21
-1.059142 -0.23015584 -0.13308132 1
-4.5439882 -0.98742706 0.73649347 44
-1.0552475 -0.22930956 -0.094476826 1
-4.5218587 -0.98261815 0.89947361 51
-1.0461164 -0.22732534 -0.056104146 1
-4.5512705 -0.9890095 1.075266 52
-1.0004944 -0.21741147 -0.017871264 1
-4.5646858 -0.9919247 1.2516489 23
-1.0757581 -0.22591354 -0.29453608 1
-1.0332998 -0.21699713 0.018429741 1
-1.0966054 -0.23029155 -0.25869372 1
-1.0300863 -0.21632227 0.055162098 1
-1.0682673 -0.22434045 -0.2121796 1
-1.0373241 -0.21784224 0.092733711 2
-1.0632643 -0.22328977 -0.17207791 1
-4.6139503 -0.96894813 0.57887936 4
-1.0646083 -0.22357203 -0.13356879 1
-4.5913682 -0.96420586 0.74306369 23
-1.0568227 -0.22193702 -0.094476826 1
-4.55935 -0.9574818 0.90557951 30
-1.0554965 -0.2216585 -0.056522831 1
-4.9242349 -1.0341091 1.1616472 60
-1.0254718 -0.21535321 -0.018290121 1
-1.0719769 -0.22511947 -0.29350081 1
-1.0293858 -0.21617517 0.018359931 1
-1.0737197 -0.22548546 -0.25329489 1
-0.99490309 -0.20893365 0.053278003 1
-1.0913235 -0.22918233 -0.21675903 1
-1.0373241 -0.21784224 0.092733711 2
-1.0825963 -0.22734958 -0.1752066 1
-4.5964661 -0.96527636 0.57668573 2
-1.0296395 -0.21622843 -0.1291815 1
-4.577836 -0.96136397 0.74087363 20
-1.0490233 -0.22029909 -0.093779579 1
-4.5670352 -0.95909578 0.90710598 14
-1.0554965 -0.2216585 -0.056522831 1
-4.9337707 -1.0361117 1.1638968 67
-1.0059017 -0.21124342 -0.017941074 1
-4.9609656 -1.0418227 1.3582823 54
-1.1265359 -0.2283774 -0.30799466 1
-1.03087 -0.2089835 0.018359931 1
-1.0829073 -0.21953279 -0.2550945 1
-1.0276566 -0.20833205 0.054952756 1
-1.0928969 -0.22155793 -0.21675903 1
-1.0622516 -0.21534535 0.094825447 2
-1.0841571 -0.21978615 -0.1752066 1
-1.0661432 -0.21613428 -0.13356879 1
-4.6096039 -0.93448365 0.74494094 23
-1.0271035 -0.20821996 -0.091687843 1
-4.5986328 -0.93225962 0.912067 9
-1.0570182 -0.21428441 -0.056522831 1
-4.9485235 -1.0031912 1.1656964 67
-1.007352 -0.20421581 -0.017941074 1
-4.9586511 -1.0052444 1.3556942 54
-1.0735224 -0.21763024 -0.29350081 1
-1.0347896 -0.2097781 0.018429741 1
-1.0829073 -0.21953279 -0.2550945 1
-1.0276566 -0.20833205 0.054952756 1
-1.0928969 -0.22155793 -0.21675903 1
-1.042725 -0.2113868 0.093082331 5
-1.0841571 -0.21978615 -0.1752066 1
-4.6011472 -0.9327693 0.576442 19
-1.0641977 -0.21573988 -0.13332506 1
-4.6231556 -0.937231 0.74713099 48
-1.042725 -0.2113868 -0.093082331 1
-1.0648479 -0.21587169 -0.05694152 1
-4.9561629 -1.00474 1.167496 70
-1.007352 -0.20421581 -0.017941074 1
-4.9586511 -1.0052444 1.3556942 50
-1.1015216 -0.21551105 -0.30074772 1
-1.0283436 -0.20119388 0.018290121 1
-1.0996764 -0.21515003 -0.25869372 1
-1.0486517 -0.20516714 0.055999473 1
-1.0481383 -0.20506668 -0.20760019 1
-1.0363184 -0.20275414 0.092385091 2
-1.0623646 -0.20785004 -0.17145218 1
-4.5976491 -0.89952314 0.57522333 23
-1.0539526 -0.20620425 -0.13186263 1
-4.6410599 -0.90801644 0.74900824 85
-1.0793353 -0.21117035 -0.096219942 1
-4.6145058 -0.90282112 0.91397506 50
-1.0858936 -0.21245345 -0.057988241 1
-4.9781871 -0.97397482 1.1710951 59
-0.99301881 -0.19428264 -0.017661836 1
-4.9824419 -0.97480726 1.3603529 54
-1.1963168 -0.23405761 -0.32662964 1
-1.0322685 -0.2019618 0.018359931 1
-1.0767266 -0.21065994 -0.25329489 1
-1.0447316 -0.20440017 0.05579013 1
-1.1213537 -0.2193912 -0.22210167 1
-1.0871567 -0.21270056 0.09691719 2
-1.0584873 -0.20709147 -0.17082644 1
-4.6112862 -0.90219122 0.57692945 26
-1.0539526 -0.20620425 -0.13186263 1
-4.6410599 -0.90801644 0.74900824 56
-1.0754247 -0.21040523 -0.095871314 1
-4.620286 -0.903952 0.91511995 48
-1.0662926 -0.20861855 -0.05694152 1
-4.9781871 -0.97397482 1.1710951 59
-1.0675933 -0.20887303 -0.018988218 1
-4.9919214 -0.97666192 1.3629411 48
-1.1029993 -0.20781578 -0.30074772 1
-1.0415138 -0.19623134 0.018499551 1
-1.0934913 -0.20602441 -0.25689411 1
-1.0343567 -0.19488285 0.055162098 1
-1.0958477 -0.20646837 -0.21675903 1
-1.092531 -0.20584345 0.09726581 2
-1.0987318 -0.20701174 -0.17708382 1
-4.644783 -0.87512225 0.58034182 19
-1.0904803 -0.20545709 -0.13624993 1
-4.6472859 -0.87559384 0.74900824 49
-1.0612038 -0.19994113 -0.094476826 1
-4.6380601 -0.87385559 0.91740966 39
-1.0991267 -0.20708615 -0.058616269 1
-4.9886951 -0.9399187 1.171995 60
-1.0375836 -0.19549084 -0.018429741 1
-5.0062118 -0.94321901 1.3650117 42
-1.1029993 -0.20781578 -0.30074772 1
-1.0415138 -0.19623134 0.018499551 1
-1.1126418 -0.20963253 -0.26139313 1
-1.0304313 -0.19414327 0.054952756 1
-1.0958477 -0.20646837 -0.21675903 1
-1.1121104 -0.2095324 0.099008925 2
-1.0793195 -0.2033543 -0.17395513 1
-4.6545367 -0.87695998 0.58156049 23
-1.0748742 -0.20251675 -0.13430002 1
-4.6511683 -0.87632531 0.74963397 50
-1.0533721 -0.19846554 -0.093779579 1
-4.6631408 -0.87858111 0.92237067 84
-1.0991267 -0.20708615 -0.058616269 1
-5.0001855 -0.9420836 1.1746944 54
-1.0022115 -0.18882637 -0.017801454 1
-4.9986181 -0.94178826 1.3629411 26
-1.1044232 -0.20011039 -0.30074772 1
-1.0467937 -0.18966851 0.01856936 1
-1.094903 -0.19838543 -0.25689411 1
-1.0710667 -0.19406654 0.057046194 1
-1.0972625 -0.19881295 -0.21675903 1
-1.113546 -0.20176336 0.099008925 2
-1.0690506 -0.19370122 -0.17207791 1
-4.6703119 -0.84621364 0.58277923 23
-1.0684487 -0.19359216 -0.13332506 1
-4.6804976 -0.84805918 0.7533884 79
-1.054732 -0.19110684 -0.093779579 1
-4.6652975 -0.84530503 0.92160743 83
-1.1123372 -0.20154433 -0.059244301 1
-5.012393 -0.90819532 1.1760441 58
