# .PCD v0.7 - Point Cloud Data file format
VERSION 0.7
FIELDS x y z intensity
SIZE 4 4 4 4
TYPE F F F F
COUNT 1 1 1 1
WIDTH 1333
HEIGHT 1
VIEWPOINT 0 0 0 1 0 0 0
POINTS 1333
DATA ascii
-0.56161612 0.83482844 -0.088027298 24
-3.6031501 5.3559933 1.2547599 91
-3.0880773 4.5903502 -0.28994119 2
-3.4546845 5.1353025 1.4288892 36
-3.3340573 4.9559932 -0.10426068 104
-3.1929061 4.7461758 1.5327264 100
-0.52837694 0.78541917 -0.25364268 40
-0.55921078 0.83125293 0.017487312 14
-0.53190827 0.79066849 -0.22000213 28
-0.5429219 0.80703986 0.050975222 71
-0.55778694 0.82913643 -0.19424355 15
-0.56495249 0.83978778 0.088550232 50
-0.55902582 0.83097798 -0.15862454 34
-0.55180299 0.82024139 0.12138186 50
-0.55955923 0.8317709 -0.12308804 39
-3.6187825 5.37923 1.0268358 71
-0.56161612 0.83482844 -0.088027298 26
-3.6053419 5.359251 1.2555232 87
-3.4002295 5.0543566 -0.31924933 2
-3.448158 5.1256013 1.4261897 36
-3.2015328 4.7589989 1.5368675 100
-0.51861238 0.78264719 -0.2515721 50
-0.55008024 0.83013588 0.017382598 38
-0.52960479 0.799236 -0.22135183 24
-0.54389387 0.82079995 0.051603254 61
-0.55523825 0.83791995 -0.19538841 9
-0.56237757 0.84869397 0.089073166 47
-0.55539322 0.83815378 -0.15925029 34
-0.55373877 0.83565706 0.12308804 45
-0.56141436 0.84724039 -0.12479421 41
-3.5822315 5.4060097 1.0271487 73
-0.55687487 0.84038973 -0.088201612 27
-3.5700085 5.3875632 1.2562864 91
-3.4219787 5.1641688 1.4302388 36
-3.4926782 5.2708626 -0.11036902 12
-3.1618283 4.7715712 1.5337616 100
-0.51647818 0.77942646 -0.25053683 49
-0.55560315 0.83847058 0.01755712 40
-0.53391051 0.80573386 -0.22315145 18
-0.54389387 0.82079995 0.051603254 60
-0.55523825 0.83791995 -0.19538841 5
-0.55687487 0.84038973 0.088201612 42
-0.55102861 0.83156711 -0.15799882 37
-0.55593181 0.83896655 0.12357552 48
-0.54935271 0.82903796 -0.12211308 37
-3.5789583 5.4010696 1.0262101 71
-0.54807049 0.8271029 -0.086807117 38
-3.5656707 5.3810172 1.2547599 89
-3.5678556 5.3843145 -0.33850896 2
-3.4209025 5.1625447 1.4297889 35
-3.3932662 5.1208382 -0.10722759 10
-3.1554258 4.761909 1.5306559 100
-0.51102424 0.78301311 -0.25053683 49
-0.5475502 0.83897972 0.017487312 53
-0.52294713 0.80128187 -0.22090194 21
-0.54251677 0.8312673 0.052021939 49
-0.55259401 0.84670806 -0.19653326 3
-0.54446077 0.83424598 0.087155744 47
-0.54305059 0.83208519 -0.15737307 34
-0.54355162 0.83285296 0.12211308 45
-0.5598256 0.85778868 -0.12576917 44
-3.5454831 5.4325404 1.0274615 71
-0.54772753 0.83925146 -0.087678678 26
-3.5301635 5.4090672 1.2555232 94
-3.5290878 5.4074187 -0.3384043 2
-3.3911684 5.1960926 1.4324883 37
-3.126328 4.7902932 1.5327264 100
-0.51313591 0.78624868 -0.2515721 45
-0.5475502 0.83897972 0.017487312 55
-0.51868689 0.79475409 -0.21910232 31
-0.54142517 0.82959473 0.05191727 53
-0.55366701 0.84835213 -0.19691488 1
-0.55752784 0.8542679 0.08924748 42
-0.54520983 0.83539373 -0.15799882 34
-0.54355162 0.83285296 0.12211308 48
-0.54138178 0.82952821 -0.1216256 37
-3.548722 5.4375033 1.0284002 64
-0.54881644 0.84091997 -0.087852992 27
-3.5344555 5.4156432 1.2570497 91
-3.384778 5.1863008 1.4297889 35
-3.5268352 5.4039674 -0.11263783 57
-3.132663 4.7999997 1.5358322 100
-0.51181245 0.79631239 -0.25364268 36
-0.5470857 0.85119289 0.017661836 58
-0.51944774 0.80819184 -0.22180174 23
-0.53454047 0.83167416 0.051812597 57
-0.54879242 0.85384834 -0.1972965 1
-0.55155039 0.85813934 0.08924748 45
-0.54150051 0.84250307 -0.15862454 34
-0.53987062 0.83996713 0.12260056 48
-0.54738373 0.85165656 -0.12430673 41
-3.5042667 5.4521747 1.026523 68
-0.54724139 0.85143512 -0.088550232 29
-3.4965615 5.4401865 1.2570497 87
-0.59069425 0.91904199 -0.057255536 1
-3.3495421 5.2114439 1.4302388 36
-3.4825356 5.418364 -0.1124284 49
-3.1053438 4.8315034 1.538938 100
-0.50554538 0.78656161 -0.25053683 49
-0.5470857 0.85119289 0.017661836 58
-0.51312584 0.79835582 -0.21910232 21
-0.53346062 0.82999402 0.051707923 60
-0.54030049 0.84063596 -0.19424355 1
-0.55262762 0.85981536 0.089421794 47
-0.54150051 0.84250307 -0.15862454 36
-0.54309052 0.8449769 0.12333178 47
-0.53343081 0.82994765 -0.12113813 46
-3.5064027 5.4554982 1.0271487 75
-0.54400963 0.84640694 -0.088027298 27
-3.5029304 5.4500957 1.2593393 89
-0.58421493 0.90896106 -0.056627505 1
-3.3527031 5.216362 1.4315885 37
-3.4857793 5.4234109 -0.11253311 46
-3.0969877 4.8185024 1.534797 100
-0.49473965 0.78199625 -0.24794865 54
-0.53777331 0.85001624 0.01755712 58
-0.51156741 0.80859452 -0.22090194 17
-0.5349825 0.84560496 0.052440628 41
-0.53846985 0.85111713 -0.19577003 1
-0.54433036 0.86038041 0.089073166 47
-0.53651398 0.84802574 -0.15893741 32
-0.53490746 0.8454864 0.1228443 43
-0.54233676 0.85722929 -0.12455047 39
-3.4693868 5.4837885 1.0277745 68
-0.53580856 0.84691066 -0.087678678 24
-3.4575431 5.4650679 1.2570497 94
-0.56381387 0.89117646 -0.055266771 1
-3.3215415 5.2501006 1.4342879 37
-3.4415355 5.4397659 -0.11235859 39
-3.0624282 4.8405404 1.534797 100
-0.49370679 0.78036368 -0.24743101 77
-0.53670418 0.84832633 0.017522216 56
-0.51156741 0.80859452 -0.22090194 17
-0.5349825 0.84560496 0.052440628 43
-0.55526423 0.87766266 -0.20187591 1
-0.54219991 0.85701299 0.088724546 47
-0.53123337 0.839679 -0.15737307 34
-0.53703016 0.84884149 0.12333178 48
-0.54339808 0.85890681 -0.12479421 37
-3.4736114 5.4904656 1.0290259 68
-0.53793901 0.85027808 -0.088027298 26
-3.4554439 5.4617496 1.2562864 84
-0.55420339 0.87598598 -0.054324724 1
-3.3225834 5.2517476 1.4347378 36
-3.4479504 5.4499054 -0.11256802 37
-3.0644939 4.8438058 1.5358322 100
-0.49860087 0.8001017 -0.25260738 45
-0.53091747 0.85195988 0.017522216 56
-0.49986774 0.80213457 -0.21820252 28
-0.5239327 0.84075153 0.05191727 53
-0.5908106 0.94807005 -0.21714063 1
-0.53951514 0.86575651 0.08924748 50
-0.52968454 0.84998149 -0.15862454 34
-0.52494055 0.84236884 0.12186934 50
-0.53963894 0.86595517 -0.12528169 37
-3.4361589 5.5139823 1.0290259 68
-0.53424639 0.85730183 -0.088375926 27
-3.4202638 5.4884758 1.2570497 84
-0.53766483 0.86278737 -0.053278003 18
-3.2826364 5.2676263 1.4329382 37
-3.4160624 5.4817338 -0.11274254 29
-3.0334959 4.8678317 1.5368675 100
-0.49860087 0.8001017 -0.25260738 40
-0.53303266 0.85535413 0.017592026 56
-0.50089836 0.80378848 -0.21865243 11
-0.52182007 0.8373614 0.051707923 58
-2.9301713 4.7020273 -1.076926 2
-0.54373008 0.87252021 0.089944728 42
-0.53177404 0.85333449 -0.15925029 34
-0.52914011 0.8491078 0.1228443 47
-0.53123987 0.85247725 -0.12333178 36
-3.4361589 5.5139823 1.0290259 68
-0.53635389 0.86068374 -0.088724546 26
-3.4306471 5.5051379 1.2608658 91
-0.53872114 0.8644824 -0.053382676 28
-3.2826364 5.2676263 1.4329382 37
-3.4107745 5.4732485 -0.11256802 16
-3.0396261 4.8776689 1.5399733 100
-0.49401325 0.8052097 -0.25312501 46
-0.5301854 0.86416799 0.01769674 58
-0.50037014 0.81557101 -0.22090194 17
-0.51700598 0.84268636 0.051812597 58
-2.9003539 4.7273893 -1.0780709 2
-0.53345788 0.86950189 0.08924748 42
-0.52993578 0.86376113 -0.16050176 34
-0.52216125 0.85108912 0.12260056 48
-0.53046602 0.86462533 -0.12455047 39
-3.3934484 5.5311017 1.0277745 68
-0.5313741 0.86610544 -0.08889886 27
-3.3900774 5.5256071 1.2601026 91
-0.5410285 0.88184148 -0.054220051 52
-3.2498581 5.2970591 1.4347378 36
-3.3745725 5.5003352 -0.11263783 10
-3.0054998 4.8987703 1.5399733 100
-0.48492098 0.7903899 -0.24846628 65
-0.5301854 0.86416799 0.01769674 56
-0.50342739 0.82055414 -0.22225164 7
-0.52118379 0.84949595 0.052231286 47
-0.53345788 0.86950189 0.08924748 45
-0.52477074 0.85534239 -0.15893741 33
-0.52942795 0.86293334 0.12430673 46
-0.5335803 0.86970145 -0.12528169 37
-3.3986135 5.5395207 1.0293388 61
-0.52408069 0.85421771 -0.087678678 27
-3.3859706 5.5189133 1.2585762 87
-0.53789508 0.87673426 -0.053906035 51
-3.2498581 5.2970591 1.4347378 36
-3.3787556 5.507153 -0.11277745 4
-2.9994383 4.8888907 1.5368675 100
-0.48252684 0.79863274 -0.25001919 57
-0.52222276 0.86433369 0.01762693 56
-0.49178392 0.81395417 -0.21955223 5
-0.52261937 0.86499006 0.052963987 40
-2.8884137 4.7806292 -1.0857031 2
-0.52340579 0.8662917 0.088550232 42
-0.51995802 0.86058527 -0.15925029 34
-0.5194357 0.85972077 0.12333178 47
-0.52970123 0.87671131 -0.12576917 37
-3.3598073 5.5608349 1.0290259 63
-0.52237546 0.86458635 -0.088375926 24
-3.3483264 5.5418329 1.2585762 89
-0.52984923 0.87695634 -0.053696692 49
-3.2177582 5.3257289 1.4365374 36
-3.3453279 5.53687 -0.11291707 1
-2.9680896 4.9125009 1.5379027 100
-0.48352584 0.80028623 -0.25053683 55
-0.52222276 0.86433369 0.01762693 56
-0.49077615 0.81228626 -0.21910232 21
-0.51952082 0.85986167 0.052649971 43
-1.8305132 3.0296922 -0.68805724 1
-0.52958775 0.87652349 0.0895961 47
-0.51995802 0.86058527 -0.15925029 34
-0.51532948 0.85292459 0.12235682 46
-0.52764809 0.87331319 -0.12528169 37
-3.3659365 5.5709791 1.0309031 61
-0.52237546 0.86458635 -0.088375926 27
-3.3503568 5.5451937 1.2593393 87
-0.52468503 0.86840904 -0.05317333 48
-3.2157428 5.3223929 1.4356376 36
-3.3598053 5.560832 -0.11340573 1
-2.9700875 4.9158077 1.538938 100
-0.48060712 0.8087914 -0.25208974 47
-0.52200204 0.87845302 0.01783636 58
-0.47983116 0.80748558 -0.21685281 6
-0.5070821 0.85334486 0.052021939 52
-2.6687562 4.4911261 -1.0154855 2
-0.52721947 0.8872332 0.090293348 47
-0.51666301 0.86946815 -0.1601889 37
-0.51717597 0.87033147 0.12430673 48
-0.51819009 0.87203801 -0.12455047 39
-3.3209724 5.5887103 1.0296516 64
-0.5170415 0.87010515 -0.088550232 32
-3.3136306 5.576355 1.2608658 91
-0.52136606 0.87738276 -0.053487346 51
-3.173655 5.3407965 1.4342879 35
-0.51893747 0.87329578 -0.017731644 4
-2.9438419 4.9540548 1.5441145 100
-0.47567275 0.80048758 -0.24950156 54
-0.52404511 0.88189119 0.017906168 56
-0.48779514 0.8208878 -0.22045204 13
-0.50504148 0.84991091 0.051812597 54
-2.6787856 4.5080037 -1.0193017 2
-0.5231483 0.88038194 0.0895961 45
-0.51969033 0.87456268 -0.16112749 36
-0.51413375 0.86521184 0.12357552 45
-0.52326041 0.88057065 -0.12576917 44
-3.3149178 5.5785213 1.0277745 63
-0.51805931 0.87181795 -0.088724546 24
-3.319648 5.5864816 1.2631556 94
-0.52238637 0.87909973 -0.053592019 48
-3.1796279 5.3508482 1.4369873 37
-0.51382983 0.86470032 -0.01755712 15
-2.9438419 4.9540548 1.5441145 100
-0.46840164 0.80029023 -0.24846628 58
-0.51212406 0.87499243 0.01769674 60
-0.4833245 0.82578677 -0.22090194 4
-0.50746465 0.86703151 0.052649971 42
-0.51427865 0.87867367 0.089073166 45
-0.51188296 0.8745805 -0.16050176 37
-0.51139241 0.87374234 0.12430673 47
-0.5144006 0.87888199 -0.12503795 39
-3.2878253 5.6174321 1.0309031 63
-0.50924659 0.87007606 -0.088201612 27
-3.2805409 5.6049862 1.2623923 91
-0.52057999 0.88943988 -0.054010708 52
-3.1411171 5.3667731 1.4356376 36
-0.51212406 0.87499243 -0.01769674 25
-2.9031143 4.9601321 1.5399733 100
-0.46840164 0.80029023 -0.24846628 58
-0.51212406 0.87499243 0.01769674 58
-0.47938702 0.81905937 -0.21910232 5
-0.50746465 0.86703151 0.052649971 41
-0.5162915 0.88211268 0.089421794 50
-0.50988734 0.87117082 -0.15987602 37
-0.50938696 0.87031591 0.12381925 46
-0.51740879 0.88402164 -0.12576917 36
-3.2888231 5.6191368 1.031216 59
-0.50824016 0.86835659 -0.088027298 27
-3.2745907 5.59482 1.2601026 94
-0.51250899 0.87565011 -0.05317333 49
-3.146039 5.3751822 1.4378872 35
-0.50202298 0.8577342 -0.017347692 38
-2.9070177 4.9668012 1.5420439 100
-0.46762404 0.81191093 -0.25105447 73
-0.505005 0.87681353 0.017661836 56
-0.47073948 0.81732011 -0.21775262 6
-0.50239611 0.87228382 0.052754644 43
-1.0278586 1.7846167 -0.40031728 1
-0.51509261 0.89432806 0.090293348 45
-0.50576484 0.87813276 -0.16050176 36
-0.50627089 0.87901139 0.12455047 48
-0.51320606 0.8910526 -0.12625664 41
-3.2544439 5.6505189 1.0327803 63
-0.50614309 0.87878954 -0.088724546 27
-3.2393715 5.6243496 1.2616291 89
-0.50937384 0.88439888 -0.053487346 49
-3.1035738 5.3885713 1.4356376 36
-0.50799912 0.88201207 -0.01776655 38
-2.8780572 4.9970188 1.5451497 100
-0.47340909 0.8219552 -0.25416031 41
-0.50999516 0.88547772 0.01783636 56
-0.46782166 0.81225407 -0.21640292 6
-0.49741203 0.86363024 0.052231286 46
-1.0043423 1.7437866 -0.39115843 1
-0.50912625 0.88396907 0.08924748 47
-0.50773662 0.88155627 -0.16112749 36
-0.50528014 0.8772912 0.12430673 46
-0.50131714 0.8704105 -0.12333178 36
-3.2485285 5.6402483 1.0309031 63
-0.50912625 0.88396907 -0.08924748 27
-3.2452505 5.6345572 1.2639188 89
-0.50837702 0.8826682 -0.053382676 46
-3.1064916 5.3936372 1.4369873 35
-0.5070011 0.88027918 -0.017731644 54
-2.8799856 5.0003672 1.546185 100
-0.4590871 0.81011355 -0.24950156 54
-0.50873059 0.89771533 0.018010883 61
-0.4727084 0.83414996 -0.22135183 4
-0.4933401 0.87055701 0.052440628 42
-0.98052865 1.7302589 -0.38657904 1
-0.50785422 0.89616889 0.090119042 52
-0.50156987 0.88507944 -0.16112749 37
-0.50305808 0.8877055 0.12528169 47
-0.50697291 0.89461374 -0.12625664 41
-3.2119949 5.6679454 1.0318418 59
-0.50294262 0.8875019 -0.08924748 30
-3.209707 5.663908 1.2654452 89
-0.50515664 0.89140868 -0.053696692 51
-3.0668399 5.4118023 1.4360875 37
-0.48802641 0.86118042 -0.017277882 55
-2.8450067 5.0203509 1.546185 100
-0.45718217 0.80675209 -0.24846628 58
-0.50182921 0.88553703 0.01776655 60
-0.46406129 0.81889111 -0.21730272 6
-0.4953095 0.87403232 0.052649971 41
-0.99020815 1.7473395 -0.39039519 1
-0.50490725 0.89096868 0.0895961 50
-0.50059593 0.8833608 -0.16081463 33
-0.50697291 0.89461374 0.12625664 47
-0.49914321 0.88079733 -0.12430673 36
-3.2119949 5.6679454 1.0318418 59
-0.49803111 0.87883484 -0.088375926 26
-3.2038991 5.6536598 1.2631556 87
-0.51204962 0.90357214 -0.054429393 52
-3.0726047 5.4219747 1.438787 36
-0.49197006 0.86813945 -0.017417502 44
-2.8469114 5.0237126 1.5472202 100
-0.45342031 0.81329882 -0.24950156 54
-0.49660853 0.89076543 0.017801454 56
-0.45738417 0.82040882 -0.21685281 6
-0.49308583 0.8844468 0.05306866 42
-0.9598214 1.7216293 -0.38314447 1
-0.49964505 0.8962121 0.089770414 52
-0.49153107 0.88165802 -0.15987602 34
-0.49588186 0.88946205 0.12503795 48
-0.50458157 0.90506661 -0.1272316 44
-3.1723473 5.6902313 1.0318418 59
-0.49576432 0.88925123 -0.089073166 24
-3.1662636 5.6793189 1.2639188 87
-0.5018388 0.90014702 -0.054010708 48
-3.0384731 5.4501014 1.4405866 35
-0.48784485 0.87504607 -0.017487312 45
-2.8117702 5.0434651 1.5472202 100
-0.4553017 0.81667352 -0.25053683 49
-0.49660853 0.89076543 0.017801454 56
-0.45169058 0.81019622 -0.21415341 8
-0.48919559 0.87746888 0.052649971 42
-0.9588654 1.7199144 -0.38276285 1
-0.50061524 0.89795232 0.089944728 55
-0.49922627 0.8954609 -0.16237898 34
-0.49298197 0.88426048 0.12430673 47
-0.49491522 0.88772815 -0.12479421 36
-3.1781187 5.7005835 1.0337189 61
-0.4967345 0.89099145 -0.08924748 27
-3.1700876 5.6861777 1.2654452 84
-0.49697605 0.89142466 -0.053487346 49
-3.0346775 5.4432931 1.438787 37
-0.48979235 0.87853926 -0.01755712 46
-2.8117702 5.0434651 1.5472202 100
-0.45237592 0.8249138 -0.25208974 47
-0.49230081 0.89771742 0.017871264 61
-0.47600815 0.86800748 -0.22855027 2
-0.48401818 0.8826139 0.052754644 43
-0.95344293 1.7386165 -0.38543418 1
-0.49816626 0.90841311 0.090641975 55
-0.49296266 0.89892429 -0.16237898 36
-0.48488769 0.8841995 0.12381925 46
-0.49443272 0.90160495 -0.12625664 44
-3.1334949 5.7139716 1.0321546 59
-0.50008225 0.91190702 -0.090990596 32
-3.1369216 5.7202201 1.2681166 88
-0.49842349 0.9088822 -0.054324724 54
-2.9947283 5.4609289 1.4378872 35
-0.48172402 0.87843049 -0.017487312 44
-2.7820654 5.0731354 1.5503261 100
-0.4505181 0.82152605 -0.25105447 52
-0.49518538 0.90297747 0.017975979 60
-1.1918944 2.1734362 -0.57227546 2
-0.48113713 0.87736028 0.052440628 42
-0.95061088 1.7334522 -0.38428932 1
-0.49529222 0.90317225 0.090119042 55
-0.49296266 0.89892429 -0.16237898 34
-0.49347824 0.89986444 0.12601291 48
-0.48870569 0.89116168 -0.12479421 36
-3.1353946 5.7174358 1.0327803 61
-0.48954415 0.8926906 -0.089073166 24
-3.1397536 5.7253842 1.2692615 89
-0.49362174 0.9001261 -0.053801361 48
-2.9966025 5.4643464 1.438787 35
-0.47787794 0.87141711 -0.017347692 51
-2.7783499 5.0663595 1.5482556 100
-0.43637708 0.80942458 -0.24639574 75
-0.48586434 0.90121722 0.017871264 65
-1.1559663 2.144172 -0.56237763 1
-0.48053339 0.89132899 0.05306866 43
-0.9605422 1.781685 -0.39344814 1
-0.48976213 0.90844715 0.090293348 50
-0.48558012 0.90069002 -0.1620661 33
-0.48702636 0.90337265 0.12601291 48
-0.49173647 0.91210932 -0.1272316 41
-3.0981512 5.7466807 1.0340319 59
-0.4840892 0.89792454 -0.08924748 27
-3.0949769 5.7407928 1.267735 84
-0.49001136 0.90890944 -0.054115377 51
-2.9574239 5.4856496 1.438787 36
-0.47542584 0.88185513 -0.017487312 44
-2.7420249 5.0861111 1.5482556 100
-0.44096088 0.81792694 -0.24898392 62
-0.48586434 0.90121722 0.017871264 56
-1.1430194 2.1201572 -0.55607903 1
-0.482429 0.89484507 0.053278003 41
-0.97917539 1.8162472 -0.40108052 1
-0.48787114 0.90493959 0.089944728 47
-0.48089305 0.89199609 -0.16050176 36
-0.48514229 0.89987797 0.12552543 48
-0.48608431 0.90162528 -0.12576917 35
-3.1028383 5.7553744 1.0355961 59
-0.4840892 0.89792454 -0.08924748 29
-3.0968401 5.7442489 1.2684982 85
-0.49001136 0.90890944 -0.054115377 46
-2.9629726 5.4959416 1.4414864 36
-0.47732374 0.8853755 -0.01755712 44
-2.7475255 5.096314 1.5513613 100
-0.43614483 0.82269233 -0.24950156 54
-0.47862422 0.90282041 0.01783636 58
-1.120888 2.1143112 -0.5524798 1
-0.47429907 0.89466202 0.05306866 41
-0.94991952 1.7918165 -0.39421138 1
-0.48620775 0.91712511 0.090816282 52
-0.47742984 0.90056747 -0.16144037 33
-0.47512898 0.89622742 0.12455047 45
-0.48721641 0.91902775 -0.12771907 37
-3.067209 5.7856226 1.0371605 61
-0.48154163 0.90832353 -0.089944728 32
-3.0585017 5.7691979 1.2692615 84
-0.48365408 0.91230822 -0.054115377 51
-2.9208808 5.5096059 1.4396868 36
-0.47113109 0.88868624 -0.01755712 44
-2.7118797 5.1153712 1.5513613 100
-0.43795457 0.82610595 -0.25053683 49
-0.48611736 0.91695458 0.018115599 60
-1.1254519 2.12292 -0.55472928 1
-0.47055706 0.88760352 0.052649971 41
-0.95911527 1.8091623 -0.39802757 1
-0.48714095 0.91888541 0.090990596 50
-0.48298132 0.91103917 -0.16331758 33
-0.47605878 0.89798129 0.12479421 48
-0.4834972 0.91201228 -0.12674412 36
-3.063508 5.7786412 1.0359091 56
-0.48154163 0.90832353 -0.089944728 27
-3.0603409 5.7726674 1.2700247 89
-0.4864606 0.91760206 -0.054429393 52
-2.9190552 5.5061626 1.438787 37
-0.47206771 0.89045304 -0.017592026 40
-2.717309 5.1256123 1.5544672 100
-0.42696199 0.8187902 -0.24743101 49
-0.47986463 0.92024225 0.018115599 58
-1.1091735 2.1270757 -0.55382949 1
-0.4700453 0.90141159 0.053278003 41
-0.9449631 1.8121672 -0.39726433 1
-0.47811142 0.91688007 0.090467662 52
-0.47768229 0.91605717 -0.16363046 34
-0.4754425 0.91176188 0.12625664 48
-0.47819602 0.91704232 -0.12698786 39
-3.02319 5.7976084 1.0355961 57
-0.47534776 0.9115802 -0.089944728 29
-3.0264235 5.8038092 1.2723144 84
-0.48666772 0.93328863 -0.055162098 57
-2.8860137 5.5345435 1.4410365 36
-0.46044815 0.88300699 -0.017382598 43
-2.6823573 5.1439896 1.5544672 100
-0.42517552 0.8153643 -0.24639574 52
-0.47616625 0.91314983 0.017975979 58
-0.4700453 0.90141159 0.053278003 42
-0.9449631 1.8121672 -0.39726433 1
-0.47442654 0.90981358 0.089770414 42
-0.47768229 0.91605717 -0.16363046 34
-0.47360682 0.90824157 0.12576917 46
-0.4800317 0.92056262 -0.12747534 35
-3.0250168 5.8011112 1.0362219 59
-0.47442654 0.90981358 -0.089770414 26
-3.0246081 5.8003278 1.2715511 84
-0.47650957 0.91380823 -0.054010708 51
-2.887816 5.5379996 1.4419363 36
-0.4659957 0.89364564 -0.017592026 39
-2.6787844 5.1371374 1.5523967 100
-0.41859165 0.81659353 -0.24587809 15
-0.46795532 0.91289276 0.017906168 58
-0.93873072 1.8312869 -0.47509661 1
-0.46920735 0.91533524 0.053906035 40
-0.93587112 1.8257084 -0.39879081 1
-0.46988106 0.91664952 0.090119042 47
-0.46406662 0.90530664 -0.16112749 34
-0.46634907 0.90975928 0.12552543 45
-0.47721547 0.93095756 -0.12845029 39
-2.9898505 5.8326359 1.0380991 57
-0.46806335 0.91310346 -0.089770414 27
-2.985832 5.8247962 1.2723144 82
-0.47467384 0.92599934 -0.054534066 51
-2.8517501 5.5632277 1.4432859 34
-0.46886751 0.91467226 -0.017941074 51
-2.6481431 5.1660285 1.5555024 100
-0.4194729 0.81831264 -0.24639574 7
-0.4697797 0.91645181 0.017975979 58
-0.92984122 1.8139452 -0.47059759 1
-0.46556303 0.90822583 0.053487346 41
-0.93945342 1.8326968 -0.40031728 1
-0.47169879 0.92019558 0.090467662 52
-0.46676993 0.91058028 -0.1620661 37
-0.46725461 0.91152579 0.12576917 48
-0.46725461 0.91152579 -0.12576917 35
-2.9898505 5.8326359 1.0380991 59
-0.47078994 0.91842252 -0.090293348 27
-2.985832 5.8247962 1.2723144 87
-0.47285169 0.92244464 -0.054324724 51
-2.8517501 5.5632277 1.4432859 35
-0.46430653 0.90577471 -0.01776655 45
-2.6499054 5.169467 1.5565377 100
-0.96102685 1.9082993 -0.57250774 1
-0.46680748 0.92693394 0.018115599 58
-0.92034328 1.8275144 -0.47239721 1
-0.45725536 0.90796643 0.053278003 41
-0.91748452 1.8218378 -0.39650109 1
-0.46958274 0.93244475 0.091339216 60
-0.46468455 0.92271847 -0.16363046 34
-0.46071994 0.914846 0.12576917 47
-0.46607715 0.92548376 -0.1272316 36
-2.9498138 5.8574095 1.0387249 59
-0.46599814 0.92532682 -0.090641975 32
-2.9493728 5.8565335 1.2746041 82
-0.46893379 0.9311561 -0.05463874 48
-2.8118677 5.5834918 1.4432859 34
-0.45421538 0.90192997 -0.01762693 44
-2.6163218 5.1951981 1.5586083 100
-0.93061459 1.8479102 -0.55439037 1
-0.46860635 0.93050599 0.018185407 56
-0.92384934 1.8344765 -0.47419682 1
-0.46084872 0.91510171 0.053696692 41
-0.91925061 1.8253447 -0.39726433 1
-0.46868658 0.93066525 0.091164909 52
-0.46912703 0.93153983 -0.16519479 32
-0.46964863 0.93257558 0.12820655 48
-0.47054151 0.93434852 -0.12845029 39
-2.9480369 5.8538814 1.0380991 57
-0.46330968 0.91998839 -0.090119042 26
-2.9493728 5.8565335 1.2746041 76
-0.46803543 0.92937231 -0.054534066 51
-2.8101149 5.5800109 1.4423862 35
-0.45331594 0.90014398 -0.017592026 41
-2.6163218 5.1951981 1.5586083 100
-0.91544336 1.8490078 -0.55283749 1
-0.4622618 0.9336741 0.018185407 58
-0.91134113 1.8407223 -0.47419682 1
-0.4581539 0.92537695 0.054115377 43
-0.9050625 1.8280407 -0.39650109 1
-0.4596889 0.92847735 0.090641975 55
-0.46014601 0.92940062 -0.16425619 36
-0.45888606 0.9268558 0.12698786 48
-0.46505153 0.93930876 -0.12869403 37
-2.9107523 5.8791227 1.0390377 56
-0.45792085 0.92490625 -0.090293348 30
-2.9111826 5.8799925 1.2753674 76
-0.46878803 0.94685572 -0.055371441 51
-2.7755268 5.6059947 1.4441857 32
-0.44717839 0.90320873 -0.017592026 40
-2.5774701 5.2059612 1.5565377 100
-0.45693827 0.9229216 0.017975979 60
-0.91134113 1.8407223 -0.47419682 1
-0.45992625 0.92895675 0.054324724 43
-0.93816388 1.8948988 -0.41100258 1
-0.465877 0.94097608 0.09186215 52
-0.45751661 0.92408979 -0.16331758 33
-0.45448217 0.91796082 0.12576917 47
-0.46769387 0.9446457 -0.12942524 39
-2.9168875 5.8915148 1.0412278 57
-0.4596889 0.92847735 -0.090641975 27
-2.9076984 5.8729548 1.2738409 76
-0.46524331 0.93969613 -0.054952756 49
-2.7781205 5.6112342 1.4455354 36
-0.45871276 0.92650574 -0.018045789 46
-2.582613 5.2163491 1.5596435 100
-0.45469439 0.93515968 0.018150503 58
-0.9032588 1.8577119 -0.47689623 1
-0.44802698 0.92144698 0.053696692 40
-1.4491102 2.9803522 -0.64417118 1
-0.45738921 0.94070208 0.091513529 55
-0.45348364 0.93266958 -0.16425619 34
-0.44876984 0.92297477 0.12601291 45
-0.45571405 0.93725675 -0.12796281 37
-2.8763819 5.9157896 1.0418535 57
-0.45651799 0.93891025 -0.091339216 30
-2.8690321 5.9006734 1.2753674 76
-0.45850715 0.94300127 -0.054952756 51
-2.7370446 5.6292176 1.4450855 34
-0.4485735 0.92257094 -0.017906168 44
-2.5485988 5.2416458 1.5617142 100
-0.45644322 0.93875641 0.018220313 56
-0.90666729 1.8647221 -0.47869584 1
-0.44540694 0.91605836 0.053382676 40
-0.46174532 0.94966114 0.092385091 57
-0.45521119 0.93622255 -0.16488193 34
-0.44963786 0.92475998 0.12625664 46
-0.45745009 0.94082725 -0.12845029 39
-2.8807008 5.9246721 1.0434179 58
-0.46000287 0.94607753 -0.092036463 30
-2.8716075 5.9059706 1.2765121 72
-0.45938048 0.94479746 -0.055057425 52
-2.7370446 5.6292176 1.4450855 34
-0.44769907 0.92077255 -0.017871264 40
-2.5502884 5.2451205 1.5627494 100
-0.453657 0.94897956 0.018359931 60
-0.89596111 1.8742107 -0.47959566 1
-0.44104448 0.92259616 0.053592019 39
-0.90686798 1.8970262 -0.40871286 1
-0.45114022 0.94371486 0.091513529 52
-0.45495582 0.95169646 -0.16707201 33
-0.4477756 0.93667662 0.12747534 48
-0.45205644 0.94563144 -0.12869403 36
-2.832824 5.9258251 1.0402892 64
-0.4502809 0.9419173 -0.091339216 32
-2.8366086 5.933742 1.2784202 66
-0.44793582 0.93701172 -0.054429393 46
-2.6996503 5.6472464 1.4450855 34
-0.43813261 0.91650498 -0.017731644 40
-2.5154455 5.261919 1.5627494 100
-0.45193207 0.94537127 0.018290121 58
-1.0312798 2.1572762 -0.55202991 1
-0.44449013 0.92980391 0.054010708 40
-0.89162654 1.8651434 -0.40184376 1
-0.44942161 0.94011974 0.091164909 52
-0.45325187 0.94813204 -0.16644627 32
-0.44863176 0.93846756 0.12771907 47
-0.45462495 0.95100433 -0.12942524 35
-2.8464558 5.9543405 1.0452951 100
-0.44684365 0.93472713 -0.090641975 29
-2.8349152 5.9301996 1.277657 76
-0.45568854 0.95322925 -0.055371441 51
-2.7038527 5.6560373 1.4473351 36
-0.44761974 0.93635058 -0.018115599 49
-2.5137792 5.2584333 1.5617142 100
-0.44277164 0.94307292 0.018185407 61
-1.0186788 2.1697154 -0.5533796 1
-0.44053456 0.93830812 0.054324724 40
-0.86523396 1.8428885 -0.39573786 1
-0.44708115 0.95225191 0.092036463 55
-0.44410312 0.9459089 -0.16550766 31
-0.4412255 0.93977982 0.12747534 48
-0.4488183 0.95595193 -0.12966898 37
-0.44200069 0.94143087 -0.090990596 30
-2.7642431 5.8876467 1.2643003 18
-0.44562745 0.94915563 -0.054952756 49
-2.666785 5.6800675 1.4486848 35
-0.43342328 0.92316163 -0.017801454 43
-2.4802914 5.2828493 1.5637847 100
-0.44787073 0.95393366 0.018394837 55
-1.0128814 2.1573672 -0.55023026 1
-0.44053456 0.93830812 0.054324724 40
-0.85855907 1.8286713 -0.39268491 1
-0.44877464 0.95585895 0.092385091 55
-0.44494262 0.94769698 -0.16582054 32
-0.43869457 0.93438911 0.12674412 46
-0.44797465 0.95415503 -0.12942524 35
-2.7452121 5.8471117 1.0230814 12
-0.44538766 0.94864494 -0.091687843 30
-2.7116783 5.7756872 1.2402585 16
-0.44562745 0.94915563 -0.054952756 46
-2.6601596 5.6659555 1.4450855 19
-0.4385224 0.93402237 -0.018010883 40
-2.4819336 5.2863464 1.5648199 100
-0.87477785 1.8984113 -0.5600844 1
-0.44019625 0.95529795 0.018359931 58
-0.99823338 2.1663299 -0.55068016 1
-0.42879382 0.93055284 0.053696692 42
-0.83066225 1.8026731 -0.3858158 1
-0.44359085 0.96266484 0.092733711 55
-0.43980309 0.95444477 -0.16644627 31
-0.43116629 0.93570149 0.12650038 42
-0.43864316 0.95192754 -0.12869403 36
-2.6495657 5.7499919 1.0027449 10
-0.44025558 0.95542675 -0.092036463 32
-2.6275547 5.7022243 1.2204143 16
-0.43965992 0.95413405 -0.055057425 48
-2.6040516 5.6512184 1.4365374 27
-0.43684873 0.94803333 -0.018220313 51
-2.4472759 5.3109899 1.5668905 100
-0.87639481 1.9019203 -0.56111968 1
-0.44187 0.95893025 0.018429741 60
-0.99170899 2.1521709 -0.54708099 1
-0.43297309 0.93962252 0.054220051 39
-0.81094325 1.7598797 -0.37665695 1
-0.44192323 0.95904583 0.092385091 47
-0.4414565 0.95803291 -0.16707201 30
-0.43781239 0.95012462 0.12845029 42
-0.44113547 0.95733619 -0.12942524 35
-2.6016173 5.6459355 0.98459852 19
-0.43608651 0.94637918 -0.091164909 26
-2.5872951 5.6148543 1.2017151 19
-0.43965992 0.95413405 -0.055057425 48
-2.5657208 5.5680342 1.415392 19
-0.42848 0.9298718 -0.017871264 40
-2.4456589 5.3074803 1.5658553 100
-0.857853 1.8955216 -0.55749625 1
-0.43368357 0.9582721 0.018359931 60
-0.97944719 2.1641974 -0.54843068 1
-0.42903775 0.94800669 0.054534066 38
-0.7940886 1.7546271 -0.37436724 1
-0.42963466 0.94932556 0.091164909 52
-0.43166733 0.95381701 -0.16582054 30
-0.43624586 0.96393371 -0.12991272 35
-2.5199599 5.5681314 0.96801645 12
-0.42881319 0.94751042 -0.090990596 30
-2.5028768 5.5303845 1.1799629 18
-0.43727267 0.96620256 -0.055580787 51
-2.4867835 5.4948249 1.392447 19
-0.42378965 0.93641043 -0.017941074 41
-2.4118652 5.3292847 1.5674081 100
-0.857853 1.8955216 -0.55749625 1
-0.43038562 0.9509849 0.018220313 52
-0.9730193 2.1499944 -0.54483145 1
-0.43233171 0.95528501 0.054952756 37
-0.77951819 1.7224321 -0.36749813 1
-0.43085286 0.95201737 -0.16550766 31
-2.4955227 5.5141349 0.74315923 2
-0.43870127 0.96935928 -0.13064393 37
-2.480051 5.4799485 0.95268589 12
-0.4320991 0.95477104 -0.091687843 32
-2.4607844 5.4373765 1.1601187 15
-0.43315521 0.95710462 -0.055057425 48
-2.4466093 5.4060555 1.369952 16
-0.42956111 0.94916308 -0.018185407 36
-2.4150512 5.3363247 1.5694786 100
-0.85008848 1.913823 -0.56111968 1
-0.4261713 0.95944893 0.018325027 55
-0.9461199 2.1300206 -0.5380829 1
-0.75472307 1.6991247 -0.36139223 1
-2.4198971 5.4479675 0.52153999 6
-0.42499799 0.95680732 -0.16582054 32
-2.4126458 5.431643 0.72975361 2
-0.43031156 0.96876997 -0.13015646 36
-2.4040451 5.4122801 0.93798107 12
-0.42704064 0.96140605 -0.092036463 29
-2.3884952 5.3772721 1.1437091 23
-0.4280844 0.96375585 -0.055266771 42
-0.42454779 0.95579386 -0.018255217 33
-2.3777382 5.3530545 1.5694786 82
-0.85322529 1.9208851 -0.56319022 1
-2.4230883 5.4551525 0.10419086 5
-2.389327 5.3791447 0.30846813 8
-0.73400205 1.652475 -0.35147017 1
-2.37784 5.3532839 0.51247579 8
-0.42900738 0.96583384 -0.16738488 30
-2.3699369 5.3354917 0.7168355 9
-0.43111742 0.97058415 -0.1304002 32
-0.42704064 0.96140605 -0.092036463 22
-2.3773377 5.3521533 1.1383665 74
-0.42646286 0.96010524 -0.055057425 45
-2.3732104 5.3428612 1.3497063 75
-2.3816593 5.3618822 1.5720669 85
-0.85214424 1.95513 -0.57147247 1
-0.71788538 1.6470912 -0.41480973 1
-0.7036218 1.6143653 -0.34231135 1
-0.42541122 0.97604871 -0.16863635 21
-2.3358033 5.3591857 0.71781045 23
-0.42353785 0.9717505 -0.13015646 27
-2.3409457 5.3709841 0.92796922 77
-0.41713417 0.95705813 -0.091339216 19
-2.3367774 5.3614206 1.13684 79
-2.3389671 5.3664446 1.3515059 70
-2.3426249 5.3748364 1.5710316 87
-2.3402028 5.3692794 0.1022362 88
-0.7038703 1.6149354 -0.40671152 1
-2.3285735 5.342598 0.30543265 75
-0.70048416 1.6071663 -0.34078488 1
-2.3332448 5.3533154 0.51090693 65
-0.42304346 0.97061616 -0.16769774 6
-2.3365965 5.3610053 0.71805418 23
-2.3464706 5.3836598 0.93015933 73
-2.3352087 5.357821 1.1360768 79
-2.3420815 5.3735905 1.3533056 73
-2.3330119 5.3527813 -0.10192205 96
-2.3441687 5.3783784 1.5720669 87
-1.1620159 2.7177339 -0.79198629 1
-2.2947998 5.3670993 0.10188715 91
-0.68338531 1.5983081 -0.40131268 1
-2.2990708 5.3770885 0.30647936 71
-0.68770337 1.6084071 -0.34002164 1
-2.3005147 5.380466 0.51195282 68
-0.85969502 2.0106628 -0.3463459 1
-2.2967718 5.3717113 0.71732295 26
-1.1120964 2.6009815 -0.34732762 1
-2.3080521 5.3980937 0.92984647 77
-1.5164442 3.546674 -0.33746704 1
-2.2946601 5.3667727 1.1345503 73
-2.2927892 5.3623967 -0.30564198 56
-2.3083408 5.3987694 1.3555551 74
-2.290869 5.3579059 -0.10171262 82
-2.305804 5.3928366 1.5715493 85
-1.152902 2.6964183 -0.78577465 1
-2.2979445 5.374454 0.10202677 91
-0.67112726 1.5696388 -0.39411426 1
-2.2990708 5.3770885 0.30647936 77
-0.68152869 1.5939658 -0.33696869 1
-2.3005147 5.380466 0.51195282 70
-0.86202478 2.0161119 -0.34728453 1
-2.2959912 5.3698864 0.71707922 23
-1.1042922 2.5827291 -0.34489024 1
-2.3088286 5.39991 0.93015933 70
-1.5148777 3.5430102 -0.33711842 1
-2.2985191 5.3757982 1.1364584 74
-2.2935743 5.3642335 -0.30574664 63
-2.3060424 5.393394 1.3542054 72
-2.2995167 5.3781314 -0.10209658 100
-2.3096015 5.4017177 1.5741374 87
-1.1273259 2.6883671 -0.78111589 1
-2.2603679 5.3903656 0.10202677 89
-0.64658809 1.5419376 -0.38601601 1
-2.2599311 5.3893242 0.30627 80
-0.66886574 1.5950638 -0.33620545 1
-2.2690601 5.4110942 0.51334733 68
-0.84792882 2.0220807 -0.34728453 1
-2.2661233 5.4040909 0.71951658 21
-1.0846993 2.5867143 -0.34440276 1
-2.2741299 5.4231839 0.93141079 73
-1.5101385 3.6012716 -0.34165052 1
-2.2639701 5.3989558 1.1379849 76
-2.2560694 5.3801146 -0.30574664 56
-2.2683334 5.4093614 1.3542054 70
-2.2565014 5.381145 -0.10185225 81
-2.2763169 5.4283996 1.5772432 87
-1.1213493 2.6741147 -0.7769748 1
-2.270421 5.4143395 0.10248053 89
-0.6435737 1.534749 -0.3842164 1
-2.2614758 5.3930078 0.30647936 71
-0.66734731 1.5914427 -0.33544222 1
-2.2675192 5.4074197 0.5129987 65
-0.84869272 2.0239024 -0.34759739 1
-2.2691939 5.4114132 0.72049153 23
-1.078558 2.5720689 -0.34245285 1
-2.2726018 5.4195404 0.93078506 68
-1.4623688 3.4873538 -0.33084321 1
-2.2700438 5.4134402 1.1410378 76
-2.2591588 5.3874822 -0.30616534 60
-2.2721014 5.4183469 1.3564548 74
-2.2626879 5.3958983 -0.10213149 82
-2.2763169 5.4283996 1.5772432 87
-1.0965071 2.6656063 -0.77231604 5
-2.2281892 5.4167228 0.1022362 91
-0.63311213 1.5390941 -0.3842164 1
-2.2307932 5.4230528 0.30731672 68
-0.65649933 1.5959483 -0.33544222 1
-2.2291439 5.4190435 0.51265007 65
-0.83414537 2.0278053 -0.34728453 1
-2.2345729 5.4322414 0.72122276 21
-1.0685774 2.5977092 -0.34489024 1
-2.2386658 5.4421916 0.93203652 73
-1.2498668 3.0384233 -0.28743964 1
-2.2331433 5.4287663 1.1410378 76
-2.226994 5.4138174 -0.30679336 56
-2.2373917 5.4390936 1.3578045 73
-2.2274284 5.4148731 -0.10220129 89
-2.2378447 5.4401946 1.576208 90
-1.0965071 2.6656063 -0.77231604 1
-2.2312322 5.4241199 0.10237581 90
-0.62125057 1.5102587 -0.37701797 1
-2.2338324 5.4304414 0.30773541 70
-0.65500563 1.5923171 -0.33467898 1
-2.2321756 5.4264135 0.51334733 70
-0.83113945 2.020498 -0.34603304 1
-2.235328 5.4340773 0.72146654 23
-1.0700878 2.6013808 -0.34537771 1
-2.2424233 5.4513254 0.9336009 71
-1.2544146 3.0494788 -0.2884855 1
-2.2316496 5.4251351 1.1402745 82
-2.2300334 5.421206 -0.30721205 60
-2.2410984 5.4481049 1.360054 76
-2.2304714 5.4222708 -0.10234091 82
-2.2393146 5.443768 1.5772432 87
-1.0889585 2.7020533 -0.78059822 1
-2.1938562 5.4436569 0.10244562 91
-0.58857453 1.4604412 -0.36352089 1
-2.1964092 5.4499922 0.30794477 68
-0.64652997 1.6042471 -0.33620545 1
-2.199991 5.4588795 0.51491612 65
-0.81370634 2.0190651 -0.34478155 1
-2.1949017 5.4462514 0.72097903 23
-1.0469934 2.5979245 -0.34391528 1
-2.2055726 5.4727287 0.9345395 70
-1.23554 3.0657687 -0.28918275 1
-2.1964407 5.4500699 1.1421826 72
-2.1941695 5.4444346 -0.30763075 92
-2.2013271 5.4621949 1.3596041 71
-2.1908662 5.4362378 -0.10230601 38
-2.2046354 5.4704037 1.5803491 90
-1.1034008 2.7378895 -0.79095101 1
-2.196846 5.451076 0.10258525 90
-0.58566082 1.4532113 -0.36172131 1
-2.1926763 5.4407296 0.30742142 64
-0.64359456 1.5969634 -0.33467898 1
-2.1917987 5.4385519 0.5129987 40
-0.81222957 2.0154006 -0.34415582 1
-2.1978698 5.4536161 0.72195399 21
-1.0455093 2.5942421 -0.34342781 1
-2.2055726 5.4727287 0.9345395 68
-1.2422427 3.0824006 -0.29075155 1
-2.2008438 5.4609957 1.1444724 79
-2.2013271 5.4621949 1.3596041 72
-2.1721792 5.3898697 -0.10143339 15
-2.2118566 5.4883218 1.5855255 87
-1.1117157 2.8136108 -0.81062126 1
-2.1494033 5.4398661 0.10209658 35
-0.57432342 1.4535393 -0.36082149 1
-2.1416471 5.4202356 0.30543265 20
-0.63126665 1.5976554 -0.33391574 1
-2.1430147 5.423697 0.51020974 10
-0.79631478 2.0153711 -0.34321722 1
-2.1658039 5.4813733 0.72366017 21
-1.0307447 2.6086833 -0.34440276 1
-2.1668181 5.4839406 0.93391377 70
-1.2585727 3.185287 -0.29964143 1
-2.1679499 5.486805 1.146762 71
-2.1394453 5.4146633 -0.30511862 6
-2.1683931 5.4879265 1.3623036 69
-2.1222143 5.3710542 -0.1008051 13
-2.173028 5.4996567 1.5844902 87
-0.55159843 1.3960253 -0.40220478 1
-2.1398506 5.4156885 0.10164282 21
-2.1629314 5.4741035 0.30846813 8
-0.63415241 1.6049589 -0.33544222 1
-2.1430147 5.423697 0.51020974 6
-0.79776657 2.0190454 -0.34384295 1
-2.1716397 5.4961429 0.72561008 21
-1.0044836 2.5422199 -0.33562818 1
-2.1711736 5.4949636 0.93579096 68
-1.3910927 3.520678 -0.33119181 1
-2.1679499 5.486805 1.146762 79
-2.1100876 5.3403625 -0.30093175 2
-2.1705415 5.4933634 1.3636533 74
-2.100904 5.3171201 -0.09979286 11
-2.1708982 5.4942665 1.5829372 85
-0.54602307 1.4106517 -0.40531063 1
-2.0868316 5.3913336 0.10090981 16
-0.54657578 1.4120797 -0.34957394 30
-2.1239417 5.4872079 0.30836347 8
-0.62151498 1.6056852 -0.33467898 1
-2.107975 5.4459581 0.51090693 8
-0.78365165 2.0245657 -0.34384295 1
-2.1303504 5.5037646 0.72463512 21
-0.96521425 2.493633 -0.328316 1
-2.1356113 5.5173559 0.93704247 64
-1.2219207 3.1568348 -0.29615521 1
-2.130301 5.5036373 1.1471437 76
-2.0302172 5.24507 -0.29475611 2
-2.1370621 5.5211043 1.3668026 74
-2.1373699 5.5218997 1.5865607 90
-0.54462832 1.4070485 -0.40427536 1
-2.0752821 5.3614955 0.10035133 16
-0.54024482 1.3957236 -0.34552482 13
-2.1275465 5.4965205 0.30888683 8
-0.62293237 1.609347 -0.33544222 1
-2.1144478 5.4626803 0.51247579 8
-0.78222555 2.0208812 -0.34321722 1
-2.1317835 5.5074673 0.72512257 21
-0.95804864 2.4751205 -0.32587862 1
-2.1398895 5.528409 0.93891966 75
-1.2204823 3.1531186 -0.29580659 1
-2.1345532 5.5146227 1.1494334 74
-2.0157981 5.207818 -0.29266268 2
-2.1370621 5.5211043 1.3668026 78
-2.0319719 5.2496033 -0.09825705 8
-2.143646 5.5381141 1.5912195 85
-0.53958535 1.4234613 -0.40789881 1
-2.0094495 5.3010583 0.098955147 15
-0.53255993 1.4049277 -0.34687454 1
-2.0869982 5.5056367 0.3085728 9
-0.61029011 1.6099851 -0.33467898 1
-2.0741413 5.4717197 0.51195282 6
-0.76809818 2.026293 -0.34321722 1
-2.0968008 5.5314965 0.72634131 33
-0.93370956 2.4631865 -0.32344124 1
-2.0991416 5.537672 0.93798107 71
-1.2019709 3.1708775 -0.29667816 1
-2.0994816 5.538569 1.1513414 79
-1.9347917 5.1041064 -0.28606835 2
-2.0998473 5.5395336 1.3677024 75
-2.109724 5.5655894 1.5948429 87
-0.51835805 1.3674623 -0.39185202 1
-1.9541631 5.1552091 0.096232571 15
-0.53048772 1.3994612 -0.34552482 1
-1.9298362 5.0910335 0.28533563 31
-0.60820246 1.6044778 -0.33353412 1
-0.7701987 2.0318344 -0.34415582 1
-2.0968008 5.5314965 0.72634131 9
-0.92526609 2.440912 -0.32051638 1
-2.0984414 5.5358248 0.9376682 22
-1.3516877 3.56584 -0.33363217 1
-2.1029611 5.5477481 1.1532496 74
-1.9383314 5.1134443 -0.28659171 31
-2.1033008 5.5486445 1.369952 74
-1.9995263 5.2748804 -0.098466478 82
-2.1076698 5.5601702 1.5932901 82
-0.50812668 1.3692366 -0.39133438 1
-1.9014281 5.1237316 0.095394857 44
-0.5186708 1.3976495 -0.3441751 1
-1.8998064 5.1193619 0.28617302 37
-0.59493721 1.6031629 -0.33238927 1
-1.9624134 5.2880678 0.49347582 22
-0.74980974 2.020494 -0.34134001 1
-2.0567515 5.5422778 0.7258538 19
-0.92063457 2.4808116 -0.32490367 1
-1.339238 3.6088119 -0.33676979 1
-2.0621302 5.5567722 1.1521047 79
-1.9220425 5.1792812 -0.2895225 33
-2.0692592 5.5759821 1.3731012 75
-1.9626522 5.2887111 -0.098466478 79
-2.07149 5.5819936 1.5953606 80
-0.50678241 1.3656142 -0.39029911 1
-1.9035152 5.1293559 0.095499568 63
-0.51324677 1.3830335 -0.3405759 1
-0.59971857 1.616047 -0.3350606 1
-2.0351982 5.4841986 0.51177853 17
-0.73468989 1.9797509 -0.33445689 1
-2.0553701 5.5385561 0.72536635 23
-0.91372806 2.4622006 -0.32246628 1
-2.0576813 5.5447841 0.93672955 73
-1.2290212 3.3118134 -0.30905426 1
-2.0655456 5.5659752 1.1540128 74
-1.9178733 5.1680465 -0.28889447 29
-2.0712931 5.5814629 1.3744509 76
-1.9703052 5.3093333 -0.098850429 77
-2.0735064 5.5874267 1.5969135 85
-0.49064171 1.3509609 -0.38512275 1
-1.8697073 5.1481586 0.095604286 65
-0.49958757 1.3755928 -0.33787647 1
-1.9158367 5.2751737 0.29412806 2
-0.58507103 1.6109679 -0.3331525 1
-1.9995824 5.505764 0.51247579 17
-0.72219944 1.9885451 -0.33508262 1
-2.0132658 5.5434408 0.72414762 23
-0.8856743 2.4386661 -0.31856647 1
-2.0236421 5.572011 0.93891966 75
-1.1739045 3.2322955 -0.30086163 2
-2.0279782 5.5839505 1.1547761 74
-1.8926557 5.2113461 -0.29056922 38
-2.0302813 5.590292 1.3731012 73
-1.9379698 5.3361163 -0.099094763 63
-2.0377457 5.6108456 1.5995017 85
-0.49064171 1.3509609 -0.38512275 1
-1.8751683 5.1631951 0.095883518 68
-0.50091803 1.3792562 -0.33877629 1
-1.8831106 5.1850638 0.28910384 2
-0.58641136 1.6146585 -0.33391574 1
-0.71950215 1.9811182 -0.33383116 1
-2.018687 5.5583677 0.72609752 19
-0.87889791 2.4200077 -0.31612909 1
-2.0236421 5.572011 0.93891966 75
-1.1589416 3.1910961 -0.29702678 11
-2.0319991 5.5950222 1.1570657 74
-1.891974 5.2094688 -0.29046455 22
-2.0349379 5.6031141 1.3762505 76
-2.0151062 5.5485086 -0.103039 56
-2.0443404 5.6290035 1.604678 82
-0.47343707 1.3325088 -0.37891108 1
-1.8451024 5.193119 0.096197665 70
-0.48931959 1.3772109 -0.33742657 1
-1.8669266 5.2545443 0.29224399 2
-0.5731529 1.6131631 -0.33277088 1
-0.71094465 2.000984 -0.33633411 1
-1.9818271 5.5779366 0.72682875 23
-0.86331099 2.4298255 -0.31661656 1
-1.9846929 5.5860028 0.93891966 73
-1.1386367 3.2047412 -0.29754969 5
-1.9961758 5.6183214 1.1589738 72
-1.8776252 5.284656 -0.29391873 45
-1.996424 5.61902 1.3767004 70
-1.9803385 5.5737472 -0.10324844 56
-2.0017593 5.6340365 1.6020899 87
-0.46826291 1.3179458 -0.37476999 1
-1.8451024 5.193119 0.096197665 70
-0.49192929 1.3845559 -0.33922619 1
-1.8696012 5.2620721 0.29266268 2
-0.57249558 1.6113132 -0.33238927 1
-0.70962197 1.9972613 -0.33570835 1
-1.9871439 5.5929008 0.72877866 28
-0.8579942 2.4148612 -0.31466666 1
-1.9866771 5.5915871 0.93985826 71
-1.0792701 3.0376518 -0.28203598 1
-1.9974904 5.6220217 1.1597371 72
-1.8856493 5.30724 -0.29517481 24
-2.0009909 5.6318741 1.3798498 74
-1.9816775 5.5775156 -0.10331824 56
-2.0049932 5.6431384 1.604678 85
-0.45248267 1.3030134 -0.36959359 1
-1.8059263 5.2005224 0.096092947 68
-0.47689497 1.3733134 -0.33562696 1
-1.8502443 5.3281446 0.29559347 2
-0.56481493 1.6264963 -0.33467898 1
-1.9143598 5.5127778 0.51055837 2
-0.68883175 1.9836273 -0.33257967 1
-1.9464202 5.6051021 0.72853494 23
-0.83678484 2.4096875 -0.3132042 1
-1.949854 5.6149902 0.94142258 73
-1.0470483 3.0151827 -0.27924699 30
-1.9546331 5.6287527 1.1582106 72
-1.870555 5.3866334 -0.29883832 56
-1.9651141 5.6589351 1.3829991 74
-1.9443392 5.5991092 -0.10345787 56
-1.9670956 5.6646409 1.6067486 82
-0.44234303 1.2738142 -0.36131138 1
-1.8092062 5.2099676 0.096267477 72
-0.47433788 1.3659497 -0.33382738 1
-1.8384509 5.2941833 0.2937094 2
-0.56481493 1.6264963 -0.33467898 1
-1.893445 5.4525495 0.50498039 2
-0.68883175 1.9836273 -0.33257967 1
-1.945769 5.6032267 0.72829121 21
-0.83027291 2.3909352 -0.31076682 1
-1.9550381 5.6299191 0.94392556 75
-1.044434 3.0076542 -0.27854976 19
-1.9578532 5.6380258 1.1601187 68
-1.8764517 5.403614 -0.29978037 22
-1.9651141 5.6589351 1.3829991 72
-1.949587 5.6142216 -0.1037371 53
-1.9702642 5.6737657 1.6093369 85
-0.42620674 1.254845 -0.35509974 1
-1.7794895 5.2392025 0.096581616 66
-0.46314907 1.3636112 -0.33247766 1
-1.7715405 5.2157993 0.28868514 15
-0.55246788 1.6265852 -0.33391574 1
-1.8319381 5.3936229 0.49835655 2
-0.67785496 1.9957519 -0.33383116 1
-1.9075842 5.6163416 0.72829121 23
-0.81014872 2.3852534 -0.30930439 1
-1.9173067 5.6449661 0.94423842 80
-0.98421019 2.8977282 -0.26774246 6
-1.9232197 5.6623755 1.1624084 66
-1.925923 5.6703348 1.3825492 77
-1.9132568 5.6330423 -0.10384182 67
-1.9347053 5.6961913 1.611925 82
-0.41875124 1.2328944 -0.34888807 1
-1.7846344 5.2543502 0.096860856 66
-0.46816286 1.3783729 -0.33607689 1
-0.54867953 1.6154315 -0.33162603 1
-1.7864441 5.2596784 0.48598042 13
-0.67785496 1.9957519 -0.33383116 1
-1.9152452 5.6388969 0.73121607 26
-0.8178097 2.407809 -0.31222925 1
-1.9179419 5.6468368 0.94455129 75
-0.96947271 2.8543377 -0.26373327 12
-1.9257452 5.6698112 1.1639348 68
-1.9315635 5.6869416 1.3865983 72
-1.9113274 5.6273618 -0.1037371 55
-1.9359479 5.6998501 1.6129603 82
-0.4040488 1.2174526 -0.3437117 1
-1.7453895 5.2590899 0.096721239 63
-0.45975631 1.3853067 -0.33697668 1
-1.7470376 5.2640557 0.29067391 71
-0.53738844 1.6192226 -0.33162603 1
-1.7829429 5.3722434 0.49521893 46
-0.66390556 2.0004356 -0.33383116 1
-1.8783331 5.6596665 0.73219103 29
-0.79472744 2.3946192 -0.30979186 1
-1.8815843 5.6694627 0.94611567 77
-0.94136369 2.8364537 -0.26146722 23
-1.8867344 5.6849804 1.1643165 70
-0.97260356 2.9305835 -0.16182278 68
-1.8918145 5.7002878 1.3865983 75
-1.8719947 5.6405683 -0.1037371 56
-1.8948915 5.7095594 1.611925 85
-0.40222329 1.2119521 -0.34215876 1
-1.7686949 5.3293123 0.098012716 15
-0.45607337 1.3742095 -0.33427727 1
-1.7910752 5.3967471 0.29800093 73
-0.53924364 1.6248126 -0.33277088 1
-1.8733138 5.6445427 0.52031976 51
-0.66017228 1.9891865 -0.33195394 1
-1.875832 5.6521301 0.73121607 19
-0.80098027 2.4134598 -0.31222925 1
-1.8822066 5.6713376 0.94642854 75
-0.94010854 2.8326716 -0.26111859 42
-1.8854976 5.6812539 1.1635532 70
-0.97071624 2.9248967 -0.16150875 64
-1.8961112 5.7132344 1.3897476 68
-1.8745142 5.64816 -0.10387672 55
-1.8997595 5.7242274 1.6160661 80
-0.39256114 1.2110552 -0.34112349 1
-0.44646853 1.37736 -0.33427727 1
-1.7595141 5.4281192 0.29904765 74
-0.52788723 1.6285375 -0.33277088 1
-1.8357052 5.6631694 0.52084273 59
-0.6487056 2.0012634 -0.3332054 1
-1.8418362 5.6820836 0.7334097 22
-0.78411174 2.4189928 -0.31222925 1
-1.8462223 5.6956143 0.94830573 75
-0.927068 2.8600142 -0.26303604 40
-1.8494215 5.7054844 1.165843 72
-0.94904143 2.9278023 -0.16129942 66
-1.8573812 5.7300401 1.3906474 68
-1.8449031 5.691545 -0.1044352 74
-1.859751 5.7373505 1.6160661 82
-0.38958266 1.2018665 -0.33853531 1
-1.7474784 5.3909888 0.098920241 77
-0.44586763 1.3755062 -0.33382738 1
-1.7545873 5.4129195 0.29821029 54
-0.52849263 1.6304052 -0.3331525 1
-1.8363196 5.6650643 0.52101701 61
-0.64626914 1.9937469 -0.33195394 1
-1.8406121 5.6783071 0.73292226 13
-0.82328671 2.5398479 -0.32782853 1
-1.8486587 5.7031307 0.94955719 75
-0.927068 2.8600142 -0.26303604 46
-1.8524483 5.7148223 1.1677511 76
-0.95212072 2.9373021 -0.16182278 67
-1.8573812 5.7300401 1.3906474 57
-1.8375037 5.6687179 -0.10401634 53
-1.8663036 5.7575655 1.6217601 40
-0.3771027 1.1916642 -0.33491185 1
-1.717643 5.4278417 0.099374004 54
-0.43978167 1.389733 -0.33652678 1
-1.7215761 5.4402704 0.29904765 74
-0.51354355 1.6228243 -0.33086279 1
-1.8009332 5.6910429 0.52223718 61
-0.63233453 1.9982101 -0.33195394 1
-1.8093102 5.7175145 0.73633456 22
-0.83188742 2.6288075 -0.33855304 1
-1.8064147 5.7083645 0.94830573 73
-0.91068554 2.8778138 -0.2640819 49
-1.8154682 5.7369742 1.1696591 62
-0.93580949 2.9572067 -0.16255549 70
-1.8196849 5.750299 1.392447 65
-1.8075372 5.7119117 -0.10457482 70
-1.8214003 5.7557197 1.617619 65
-0.37651986 1.1898224 -0.33439422 1
-1.719453 5.4335608 0.099478714 56
-0.44154549 1.3953068 -0.33787647 1
-1.7324226 5.474546 0.30093175 70
-0.5123589 1.6190808 -0.33009955 1
-1.7961243 5.6758466 0.52084273 57
-0.62995064 1.9906768 -0.33070245 1
-1.8069146 5.7099442 0.73535961 20
-0.83667868 2.6439483 -0.34050295 1
-1.8129704 5.7290812 0.9517473 77
-0.91248888 2.8835125 -0.26460484 37
-1.8154682 5.7369742 1.1696591 72
-0.94002759 2.9705362 -0.16328818 75
-1.8220366 5.7577305 1.3942466 66
-1.8002974 5.6890335 -0.10415597 56
-1.8243145 5.7649288 1.6202072 80
-0.36706427 1.1887302 -0.33335894 1
-1.6808879 5.443522 0.099443808 90
-0.42661911 1.3815974 -0.33382738 1
-1.7401245 5.6353583 0.30909616 61
-0.49988469 1.6188666 -0.32933632 1
-1.7617465 5.7053809 0.52241153 61
-0.61312371 1.9855889 -0.3291381 1
-1.7728647 5.7413869 0.73779702 22
-0.83108526 2.691453 -0.34586519 1
-1.7723472 5.7397108 0.95143443 75
-0.89703882 2.9050422 -0.26599932 37
-1.7753726 5.7495089 1.1696591 70
-0.91926658 2.9770265 -0.16328818 75
-1.7852458 5.7814822 1.3969461 65
-1.7640768 5.7129273 -0.10436539 56
-1.7863034 5.7849078 1.6222777 77
-0.3664943 1.1868844 -0.33284128 1
-1.6814779 5.4454327 0.099478714 56
-0.42546919 1.3778734 -0.33292755 1
-1.7654632 5.7174172 0.31359705 55
-0.50336015 1.6301217 -0.33162603 1
-1.7693884 5.7301288 0.52467757 63
-0.61137527 1.9799266 -0.32819951 1
-1.7693506 5.7300062 0.73633456 20
-0.83225662 2.6952462 -0.34635267 1
-1.7793411 5.7623601 0.95518887 75
-0.89703882 2.9050422 -0.26599932 36
-1.7776896 5.7570119 1.1711856 70
-0.91749877 2.9713013 -0.16297416 74
-1.7846708 5.7796206 1.3964962 70
-1.7717468 5.7377663 -0.10481916 56
-1.7891533 5.794137 1.624866 87
-0.35708526 1.1857145 -0.331806 1
-1.6307349 5.4149141 0.098710813 8
-0.41921121 1.3920059 -0.33562696 1
-1.7289611 5.7410774 0.31422508 50
-0.48970306 1.6260766 -0.33009955 1
-1.732789 5.7537885 0.52572346 51
-0.5998165 1.9917123 -0.32945099 1
-1.7367464 5.7669291 0.7395032 22
-0.80769587 2.6819832 -0.34391528 1
-1.7390691 5.774642 0.95518887 70
-0.88133234 2.9264958 -0.26739383 34
-1.741418 5.7824411 1.173857 74
-0.89846081 2.9833715 -0.16328818 75
-1.7448401 5.7938046 1.3969461 68
