# .PCD v0.7 - Point Cloud Data file format
VERSION 0.7
FIELDS x y z intensity
SIZE 4 4 4 4
TYPE F F F F
COUNT 1 1 1 1
WIDTH 1282
HEIGHT 1
VIEWPOINT 0 0 0 1 0 0 0
POINTS 1282
DATA ascii
-0.45596206 0.52544975 -0.16061506 37
-0.4633874 0.53400666 0.037053857 46
-0.45807135 0.52788049 -0.135856 37
-0.47531569 0.54775286 0.063449383 33
-0.45054245 0.5192042 -0.10887839 100
-0.47357485 0.54574668 0.08872088 91
-0.46316662 0.53375226 -0.086770974 100
-0.4725517 0.54456764 0.11419716 63
-3.361161 3.873395 -0.44867778 64
-0.46450493 0.53529453 0.1377641 100
-3.3877022 3.903981 -0.27089092 27
-0.46490249 0.53575265 0.16376437 64
-3.456054 3.9827497 -0.092043988 44
-3.7338347 4.3028636 1.5265148 97
-0.59518403 0.69588661 -0.24536045 48
-3.3767753 3.9481111 0.0906827 0
-0.45092374 0.5272181 -0.16016515 37
-0.45565978 0.53275543 0.036739841 56
-0.45555827 0.53263682 -0.13623762 37
-0.47656396 0.55719656 0.064146623 33
-0.44424769 0.51941252 -0.10825265 9
-0.4657867 0.54459578 0.087989666 92
-0.45159373 0.52800149 -0.085308537 85
-0.47891441 0.55994469 0.11670011 68
-3.4822841 4.0714717 -0.4687236 48
-0.45555827 0.53263682 0.13623762 100
-3.4843042 4.0738335 -0.2809394 29
-0.4661234 0.54498947 0.16556397 69
-3.5054514 4.0985589 -0.09413828 44
-3.7004375 4.3265357 1.5254794 99
-0.59267271 0.69295043 -0.24432518 51
-3.3897729 3.9633079 0.091031753 0
-0.44585717 0.5212943 -0.15836555 38
-0.45955428 0.53730893 0.037053857 55
-0.47469938 0.55501652 -0.14196189 33
-0.46620387 0.54508358 0.062752135 34
-0.44809955 0.52391607 -0.10919125 100
-0.4657867 0.54459578 0.087989666 92
-0.47506255 0.55544114 0.1157615 61
-3.4926441 4.0835843 -0.47011808 34
-0.45811042 0.53562075 0.13700086 100
-3.5063732 4.0996366 -0.28271884 24
-0.45219037 0.52869904 0.16061506 79
-3.5730388 4.1775818 -0.09595333 46
-3.6991818 4.3250675 1.5249618 99
-0.58794224 0.6969685 -0.24432518 51
-3.4581316 4.0993972 0.093614705 0
-0.44355506 0.52580661 -0.15881544 38
-0.444296 0.52668494 0.036111809 58
-0.44432688 0.52672154 -0.13394791 38
-0.47789893 0.56651908 0.064843871 48
-0.44961783 0.53299361 -0.11044274 100
-0.46334895 0.54927099 0.088233404 91
-3.4981565 4.1468444 -0.66613781 1
-0.46872342 0.55564207 0.11513577 71
-3.370986 3.9960916 -0.45739335 44
-0.454454 0.53872657 0.13700086 100
-3.527324 4.1814203 -0.28669637 22
-0.45360729 0.53772289 0.16241466 72
-3.5612824 4.2216759 -0.096407093 48
-3.6696565 4.3501468 1.5249618 97
-0.58046842 0.68810874 -0.24121936 40
-3.465868 4.1085682 0.093824141 0
-0.44732463 0.53027523 -0.16016515 37
-0.45073506 0.53431803 0.036635168 47
-0.46204934 0.54773039 -0.13929057 35
-0.46633688 0.55281299 0.063275069 51
-0.45216525 0.53601342 -0.11106847 100
-0.46462891 0.55078834 0.088477142 91
-3.5327158 4.1878119 -0.67271876 12
-0.45853376 0.54356289 0.11263282 64
-3.3067522 3.9199467 -0.44867778 42
-0.454454 0.53872657 0.13700086 100
-3.31741 3.9325807 -0.26963484 20
-0.45235077 0.53623337 0.16196476 78
-3.352402 3.9740615 -0.090752512 28
-3.6721478 4.3530998 1.525997 92
-0.57577121 0.6920439 -0.24121936 60
-3.4352639 4.1289897 0.093754329 0
-0.44245848 0.53180969 -0.15971525 37
-0.46241638 0.55579793 0.037891231 35
-0.45077649 0.54180747 -0.13700086 36
-0.475306 0.57129049 0.065018184 48
-0.44597948 0.53604168 -0.11044274 100
-0.46086907 0.55393815 0.088477142 91
-3.521903 4.2331252 -0.67613113 22
-0.46240366 0.55578262 0.11451003 63
-3.2608795 3.9193897 -0.4460631 50
-0.45203215 0.54331666 0.13738248 100
-3.2790687 3.9412522 -0.26869279 36
-0.44619757 0.53630382 0.16106495 85
-3.6399612 4.3750243 1.5249618 94
-0.57206452 0.68758869 -0.23966643 64
-3.3188794 3.9891021 0.09057799 1
-0.43871939 0.5273155 -0.15836555 38
-0.46369377 0.55733329 0.037995905 35
-0.45579907 0.54784429 -0.13852733 35
-0.475306 0.57129049 0.065018184 48
-0.43081871 0.51781934 -0.10668831 100
-0.45198181 0.54325616 0.086770974 95
-3.5358689 4.2499113 -0.67881227 33
-0.46366704 0.55730116 0.11482289 62
-3.2697995 3.9301112 -0.44728327 64
-0.44952086 0.54029822 0.13661924 100
-3.2726817 3.9335754 -0.26816943 40
-0.45242938 0.5437941 0.16331446 76
-3.2779529 3.9399109 -0.089461036 55
-3.63749 4.3720541 1.5239265 99
-0.57950199 0.70650226 -0.24484281 49
-3.2744629 3.9920754 0.090124227 7
-0.43255565 0.52735204 -0.15746574 39
-0.45472503 0.55437994 0.037577216 45
-0.45196334 0.55101299 -0.13852733 35
-0.46751544 0.56997341 0.064495251 32
-0.4372153 0.53303289 -0.10919125 9
-0.44817817 0.54639834 0.086770974 95
-3.5086308 4.2775621 -0.67929971 28
-0.45976508 0.56052452 0.11482289 71
-3.2321742 3.9405189 -0.44588879 68
-0.43951255 0.5358336 0.13471115 100
-3.2350075 3.9439731 -0.26733208 42
-0.45232961 0.55145955 0.16466418 74
-3.261781 3.9766142 -0.089775182 49
-3.606879 4.3973417 1.5239265 97
-0.58195227 0.70948958 -0.24587809 46
-3.3327997 4.0631967 0.09172985 19
-0.43379152 0.52885878 -0.15791564 38
-0.44585851 0.54357028 0.036844514 56
-0.45071825 0.54949504 -0.13814571 36
-0.48015097 0.58537811 0.066238366 30
-0.43972084 0.53608751 -0.10981699 100
-0.45573175 0.55560726 0.088233404 82
-3.5954969 4.3834653 -0.6961177 43
-0.45224848 0.55136067 0.11294568 74
-3.2422826 3.9528427 -0.44728327 62
-0.44573793 0.5434233 0.13661924 100
-3.2464073 3.9578712 -0.2682741 31
-0.43997088 0.53639233 0.16016515 91
-3.2998266 4.0229979 -0.090822324 67
-3.6093295 4.4003291 1.5249618 99
-0.57577026 0.71203291 -0.24536045 48
-3.3647056 4.1610017 0.093405277 26
-0.43253949 0.5349049 -0.15881544 38
-0.44582033 0.55132884 0.03715853 54
-0.43946439 0.54346865 -0.135856 37
-0.46101937 0.57012486 0.064146623 16
-0.43348339 0.53607219 -0.10919125 9
-0.44934544 0.55568814 0.087745927 92
-3.5585661 4.4007416 -0.69489902 35
-0.45087242 0.55757654 0.11357142 73
-3.2672241 4.0404501 -0.45460436 59
-0.44810554 0.55415487 0.13852733 100
-3.2626514 4.0347953 -0.27193764 20
-0.43744078 0.54096615 0.16061506 98
-3.4049413 4.2107596 -0.09452223 49
-3.5760922 4.4224153 1.5239265 97
-0.56605262 0.70001549 -0.24121936 60
-3.4061987 4.2123146 0.094557136 55
-0.43989143 0.54399675 -0.16151486 36
-0.4520995 0.55909401 0.037681889 44
-0.43946439 0.54346865 -0.135856 37
-0.45350274 0.56082934 0.063100755 17
-0.43348339 0.53607219 -0.10919125 9
-0.45683452 0.56494963 0.089208357 90
-3.5610626 4.4038286 -0.69538647 24
-0.45211449 0.55911255 0.11388429 63
-3.2772462 4.052844 -0.45599884 74
-0.43576103 0.53888887 0.13471115 100
-3.2978146 4.0782804 -0.27486843 38
-0.43744078 0.54096615 0.16061506 98
-3.4489491 4.2651825 -0.095743902 50
-3.5712333 4.4164066 1.521856 94
-0.56356025 0.70697141 -0.24225463 47
-3.3679831 4.2250457 0.094312802 63
-0.43122405 0.54095918 -0.15971525 37
-0.45067522 0.56536013 0.037891231 43
-0.43933088 0.55112898 -0.13700086 36
-0.4545441 0.57021356 0.063798003 33
-0.42849907 0.53754073 -0.10887839 100
-0.44792983 0.56191611 0.088233404 82
-3.535181 4.4347911 -0.69636142 14
-0.45066279 0.56534457 0.11451003 72
-3.2600498 4.0896463 -0.45756766 82
-0.43321207 0.5434531 0.13509277 100
-3.416168 4.2854924 -0.28721973 45
-0.44094178 0.55314982 0.16331446 94
-3.4377859 4.3126116 -0.096267477 50
-3.5403142 4.4412308 1.521856 94
-0.56596857 0.70999265 -0.2432899 54
-3.5188069 4.4142504 0.09853629 89
-0.42029163 0.52724475 -0.15566613 40
-0.44818529 0.56223661 0.037681889 44
-0.43688336 0.54805863 -0.13623762 37
-0.46199563 0.57956129 0.064843871 48
-0.42973039 0.53908539 -0.10919125 100
-0.44174296 0.55415487 0.087014712 95
-3.5289941 4.4270296 -0.69514275 10
-0.45189413 0.56688923 0.11482289 62
-3.2612917 4.0912042 -0.45774198 65
-0.43565959 0.54652345 0.135856 100
-3.4236376 4.2948632 -0.28784776 42
-0.44094178 0.55314982 0.16331446 94
-3.4502506 4.328248 -0.096616521 63
-3.545131 4.4472733 1.5239265 99
-0.56935346 0.72455949 -0.24691337 43
-3.5101435 4.4670105 0.099164575 92
-0.42141673 0.53629512 -0.15746574 39
-0.43931314 0.55907011 0.0372632 36
-0.44153768 0.56190103 -0.13890895 35
-0.45547625 0.57963932 0.064495251 32
-0.4259564 0.5420723 -0.10919125 100
-0.44154301 0.56190783 0.087745927 92
-3.4930959 4.4453154 -0.69416779 5
-0.4430435 0.56381732 0.11357142 63
-3.4653127 4.4099584 -0.49068683 52
-0.43062052 0.54800791 0.13547438 100
-3.4750164 4.4223075 -0.29475611 40
-0.42984506 0.54702103 0.16061506 98
-3.4656646 4.4104061 -0.097907998 67
-3.5187714 4.4779902 1.525997 92
-0.55861092 0.71088856 -0.24225463 57
-3.5113792 4.4685826 0.099199481 91
-0.42502889 0.54089195 -0.15881544 38
-3.3491459 4.2621245 0.28407958 6
-0.43183354 0.54955155 -0.135856 37
-0.45547625 0.57963932 0.064495251 32
-0.43327945 0.5513916 -0.11106847 100
-0.45012856 0.57283384 0.089452095 88
-3.5016813 4.4562411 -0.69587398 1
-0.4430435 0.56381732 0.11357142 63
-3.496088 4.4491234 -0.49504462 99
-0.43183354 0.54955155 0.135856 100
-3.5108032 4.4678497 -0.2977916 72
-0.43345723 0.55161786 0.16196476 100
-3.4977884 4.4512873 -0.098815523 94
-3.5068352 4.4628005 1.5208207 97
-0.54890251 0.70866185 -0.24018407 63
-3.4751992 4.4866638 0.099059857 91
-0.42362905 0.54692727 -0.15971525 37
-3.2765031 4.2301369 0.28041604 17
-0.43519971 0.56186563 -0.13814571 36
-0.45141855 0.58280498 0.064495251 16
-0.41853279 0.54034775 -0.10825265 100
-0.43760943 0.56497669 0.087745927 92
-3.4765637 4.4884257 -0.69709265 1
-0.43425801 0.56064981 0.11231995 75
-3.4612823 4.4686966 -0.49452168 100
-0.43159309 0.55720925 0.13700086 100
-3.4746342 4.4859347 -0.29737291 65
-0.4260157 0.55000859 0.16061506 100
-3.4617293 4.469274 -0.098675907 82
-3.4779599 4.4902282 1.521856 97
-0.55245143 0.71324372 -0.24173699 58
-3.4703012 4.4803405 0.098920241 91
-0.42243573 0.54538667 -0.15926534 38
-3.4122596 4.405406 0.29203463 35
-0.43519971 0.56186563 -0.13814571 36
-0.44897845 0.57965469 0.064146623 16
-0.41732314 0.53878605 -0.10793978 100
-0.43517825 0.56183791 0.087258451 84
-3.5616546 4.5982823 -0.71415436 1
-0.44393507 0.57314342 0.11482289 62
-3.4637225 4.4718471 -0.49487031 100
-0.42437983 0.54789656 0.13471115 100
-3.4636269 4.4717236 -0.29643086 63
-0.43198231 0.55771178 0.16286457 100
-3.4739747 4.4850831 -0.099024951 89
-3.4755938 4.4871736 1.5208207 94
-0.55566466 0.72783172 -0.24536045 48
-3.4425786 4.5092263 0.099024951 91
-0.41507035 0.54367572 -0.15791564 38
-3.4117208 4.4688077 0.29465142 68
-0.43126658 0.56489015 -0.13814571 36
-0.44733885 0.58594227 0.064495251 16
-0.41235289 0.54011625 -0.10762691 9
-0.43244991 0.56644017 0.087502189 93
-0.4384729 0.57432926 -0.08872088 39
-0.44112167 0.57779878 0.11513577 62
-3.4348369 4.4990864 -0.49521893 100
-0.42173582 0.55240643 0.13509277 100
-3.4008129 4.4545202 -0.2937094 27
-0.4233481 0.55451822 0.16106495 100
-3.4377246 4.5028687 -0.098885335 83
-3.4488723 4.5174704 1.5228913 99
-0.55332011 0.72476071 -0.24432518 51
-3.4401515 4.5060477 0.098955147 92
-0.42098302 0.55142033 -0.16016515 37
-3.2481034 4.2544956 0.28052074 98
-0.43245792 0.56645066 -0.13852733 35
-0.42315838 0.55426967 0.06100902 18
-0.42314118 0.5542472 -0.11044274 100
-0.4348591 0.56959581 0.087989666 92
-0.42040396 0.55066186 -0.085064799 71
-0.42673728 0.55895752 0.11138134 66
-3.4372549 4.5022535 -0.49556756 99
-0.42292717 0.55396688 0.13547438 100
-3.4395962 4.5053201 -0.29705888 58
-0.41980049 0.54987144 0.15971525 100
-3.4377246 4.5028687 -0.098885335 94
-3.4488723 4.5174704 1.5228913 97
-0.54476225 0.72397494 -0.24277227 55
-3.413419 4.536346 0.099094763 92
-0.41829485 0.55590308 -0.16061506 37
-3.2663572 4.3409047 0.28470761 58
-0.42377117 0.56318092 -0.13700086 36
-0.4240703 0.56357849 0.061706267 18
-0.4145107 0.55087399 -0.10919125 100
-0.42848492 0.56944537 0.087502189 93
-0.40461388 0.5377214 -0.082627416 91
-0.43113863 0.57297212 0.11357142 73
-3.400948 4.5197721 -0.49487031 92
-0.41904947 0.55690593 0.13547438 100
-3.4080596 4.529223 -0.29705888 69
-0.41477978 0.55123162 0.15926534 100
-3.3941817 4.5107799 -0.09853629 86
-3.4288659 4.5568743 1.5280676 85
-0.54592377 0.72551858 -0.2432899 36
-3.4074075 4.5283566 0.098920241 91
-0.41829485 0.55590308 -0.16061506 37
-3.2759643 4.353672 0.28554499 9
-0.41196695 0.54749346 -0.13318467 39
-0.41209093 0.54765821 0.059963152 19
-0.41213527 0.54771715 -0.10856552 100
-0.43445268 0.57737637 0.08872088 91
-0.42251715 0.56151438 -0.086283498 100
-0.41688609 0.5540309 0.10981699 58
-3.3961563 4.5134039 -0.49417305 97
-0.42377117 0.56318092 0.13700086 100
-3.4152648 4.5387988 -0.2976869 63
-0.41712317 0.55434591 0.16016515 100
-3.3965864 4.5139756 -0.098606095 44
-3.4358351 4.5661364 1.5311735 100
-0.53394103 0.72000182 -0.24018407 42
-3.2208617 4.3432255 0.094382614 99
-0.40976056 0.55254859 -0.15881544 38
-3.2050407 4.3218913 0.28198612 13
-0.4163208 0.56139481 -0.135856 37
-0.42249906 0.56972599 0.062054887 17
-0.40947813 0.55216771 -0.10887839 9
-0.42449903 0.57242286 0.087502189 93
-0.41858679 0.56445038 -0.086283498 100
-0.42595139 0.57438135 0.11325856 82
-3.3740587 4.5498061 -0.49556756 45
-0.41281247 0.55666393 0.13471115 100
-0.42136854 0.56820148 0.16331446 100
-3.2113326 4.3303757 -0.094103374 92
-3.3969696 4.5807009 1.5280676 100
-0.53624249 0.72310525 -0.24121936 40
-3.8354936 5.1720362 0.1123935 67
-0.40511739 0.54628742 -0.15701583 39
-0.42450687 0.57243347 -0.13852733 35
-0.43674061 0.58893025 0.064146623 33
-0.40594813 0.54740763 -0.10793978 9
-0.42213413 0.56923389 0.087014712 95
-0.41503942 0.55966693 -0.085552283 100
-0.44360131 0.59818166 0.11795159 58
-3.2114677 4.3305578 -0.47168687 15
-0.41515136 0.55981785 0.13547438 100
-3.2086096 4.326704 -0.28230014 2
-0.41556457 0.56037503 0.16106495 100
-3.8354936 5.1720362 -0.1123935 82
-3.4084771 4.5962186 1.533244 100
-0.53574073 0.73307019 -0.2432899 36
-3.8122718 5.2164459 0.11277745 77
-0.40704295 0.55696911 -0.15926534 38
-0.41007462 0.56111741 -0.13509277 38
-0.43379408 0.59357351 0.064320937 49
-0.40910998 0.55979753 -0.10981699 100
-0.40877956 0.55934536 0.085064799 100
-0.4040944 0.55293453 -0.084089845 100
-0.42542776 0.5821256 0.11419716 72
-3.2928381 4.5056896 -0.48824647 2
-0.40775779 0.55794728 0.13432953 100
-3.2490337 4.4457507 -0.28858048 2
-0.40244359 0.55067569 0.15746574 100
-3.3763065 4.6199017 1.533244 100
-0.53574073 0.73307019 -0.2432899 45
-0.40819278 0.55854249 -0.15971525 37
-3.7875931 5.1826777 0.33641553 11
-0.40775779 0.55794728 -0.13432953 38
-0.42438933 0.58070469 0.062926449 51
-0.41144109 0.56298721 -0.11044274 100
-0.4251776 0.58178329 0.088477142 91
-0.40995085 0.56094807 -0.085308537 19
-0.41610333 0.56936669 0.11169421 76
-3.3492665 4.5829024 -0.49661341 2
-0.41586661 0.5690428 0.13700086 100
-0.41279215 0.56483591 0.16151486 100
-3.3740268 4.6167822 1.5322088 100
-0.52296054 0.72563642 -0.23966643 21
-0.4022007 0.55807549 -0.15881544 38
-3.758976 5.215785 0.33693889 21
-0.41208348 0.57178843 -0.13700086 36
-0.42635316 0.59158838 0.063798003 50
-0.3984586 0.55288315 -0.10793978 100
-0.42130974 0.58459038 0.088477142 100
-0.40506089 0.5620442 -0.085064799 100
-0.41462791 0.57531899 0.11231995 75
-0.40978774 0.56860298 0.13623762 100
-1.3627602 1.8909044 -0.12215212 1
-0.40903696 0.56756121 0.16151486 100
-3.7600539 5.2172809 -0.11225387 106
-3.3365562 4.6296544 1.5291029 100
-0.52860808 0.7334727 -0.24225463 47
-3.7717454 5.2335038 0.11260293 107
-0.40447944 0.56123739 -0.15971525 37
-3.7718213 5.2336087 0.33809027 18
-0.41552708 0.57656658 -0.13814571 36
-0.42402336 0.58835566 0.063449383 50
-0.39383876 0.54647291 -0.10668831 9
-0.41898847 0.58136946 0.087989666 100
-0.41086406 0.57009637 -0.086283498 100
-0.41231802 0.57211387 0.11169421 66
-1.3559428 1.8814451 -0.20289856 1
-0.40749201 0.56541753 0.13547438 100
-1.321889 1.8341935 -0.1184886 1
-0.41017634 0.56914216 0.16196476 100
-3.7588847 5.2156587 -0.11221898 100
-3.3388152 4.6327891 1.5301383 100
-0.52347463 0.73714519 -0.24225463 38
-3.7304859 5.2531862 0.11246331 108
-0.39490986 0.55610317 -0.15746574 39
-3.723628 5.2435288 0.33704355 12
-0.41603863 0.58585626 -0.13967219 35
-0.4175984 0.58805263 0.063100755 51
-0.39458907 0.55565143 -0.10793978 100
-0.40687403 0.57295084 0.086283498 100
-0.40112722 0.56485832 -0.085064799 100
-0.41975126 0.59108424 0.11482289 71
-1.2943243 1.8226383 -0.19557749 1
-0.40353474 0.56824851 0.13547438 100
-1.2708905 1.7896392 -0.11503443 6
-0.40393639 0.5688141 0.16106495 100
-3.6957514 5.2042737 -0.11141616 71
-3.3086281 4.6591353 1.5311735 100
-0.52347463 0.73714519 -0.24225463 47
-3.7351172 5.2597075 0.11260293 107
-0.39378154 0.55451429 -0.15701583 39
-3.7247844 5.2451572 0.33714822 10
-0.41035506 0.57785273 -0.1377641 36
-0.42682707 0.60104823 0.064495251 65
-0.39687651 0.55887258 -0.10856552 9
-0.40802342 0.57456934 0.086527236 96
-0.39997786 0.56323981 -0.08482106 19
-0.41288882 0.58142072 0.11294568 64
-1.2712525 1.7901491 -0.19209126 1
-0.4069449 0.57305062 0.13661924 100
-1.25817 1.7717266 -0.11388304 6
-0.40167975 0.5656364 0.16016515 100
-3.6008103 5.07058 -0.10855397 38
-3.3175764 4.6717362 1.5353146 100
-0.52274573 0.74711317 -0.24432518 51
-3.7040389 5.2938476 0.11277745 106
-0.39101794 0.55884659 -0.15746574 39
-3.6915109 5.2759428 0.33746225 6
-0.39393026 0.5630089 -0.13356629 39
-0.41119844 0.58768874 0.062752135 69
-0.40202492 0.57457787 -0.11106847 100
-0.41310653 0.59041578 0.088477142 100
-0.40286422 0.57577735 -0.086283498 17
-0.40202492 0.57457787 0.11106847 67
-1.2335953 1.7630662 -0.1882564 1
-0.40631092 0.58070344 0.1377641 100
-1.2434804 1.777194 -0.11367369 7
-0.39995551 0.57162023 0.16106495 100
-3.2760208 4.6821203 1.5311735 100
-0.51167059 0.7312845 -0.2391488 55
-3.6925747 5.277463 0.1124284 105
-0.39772111 0.56842679 -0.16016515 37
-3.6926558 5.2775793 0.33756691 5
-0.40405989 0.57748628 -0.13700086 36
-0.41348284 0.59095365 0.063100755 51
-0.39409769 0.56324816 -0.10887839 9
-0.41424456 0.59204227 0.08872088 100
-0.39945009 0.57089794 -0.085552283 100
-0.40428987 0.57781494 0.11169421 66
-0.42033616 0.60074848 -0.064146623 34
-0.40180886 0.57426906 0.13623762 100
-1.2389003 1.7706482 -0.11325501 7
-0.39883831 0.57002354 0.16061506 100
-3.6134727 5.1644096 -0.11001997 36
-3.2715909 4.6757889 1.5291029 100
-0.51093858 0.74120104 -0.24121936 50
-3.6579113 5.306406 0.11249821 104
-0.39153105 0.56798065 -0.15926534 38
-3.6659238 5.3180294 0.33850896 2
-0.39221865 0.56897813 -0.13432953 38
-0.40821639 0.5921855 0.062926449 69
-0.38455021 0.55785376 -0.10731404 100
-0.40897462 0.59328538 0.088477142 91
-0.39770809 0.57694143 -0.086039759 16
-0.41369978 0.60014004 0.11544864 70
-0.41160876 0.5971067 -0.063449383 35
-0.39444718 0.57221097 0.13509277 100
-1.2242417 1.7759653 -0.11304566 5
-0.39706114 0.57600296 0.16151486 100
-3.4615667 5.0215759 -0.10645968 27
-3.241061 4.7016959 1.5301383 100
-0.51532435 0.7475633 -0.2432899 36
-3.5943546 5.2142067 0.11054354 63
-0.38600093 0.55995828 -0.15701583 39
-3.6647902 5.3163853 0.3384043 1
-0.3989042 0.57867664 -0.13661924 37
-0.41387036 0.60038751 0.063798003 50
-0.38679248 0.56110656 -0.10793978 9
-0.39770809 0.57694143 0.086039759 100
-0.39545479 0.57367265 -0.085552283 100
-0.40697297 0.59038168 0.11357142 73
-0.41160876 0.5971067 -0.063449383 35
-0.39778996 0.57706022 0.13623762 100
-1.228776 1.7825429 -0.11346436 1
-0.3937431 0.57118958 0.16016515 100
-3.2454469 4.7080584 1.5322088 100
-0.51117814 0.75274086 -0.24380754 26
-3.4668684 5.1051745 0.10771625 18
-0.3864615 0.56908804 -0.15881544 38
-0.39159524 0.57664782 0.036530498 19
-0.3926487 0.57819903 -0.135856 37
-0.4096688 0.60326219 0.063798003 50
-0.37842682 0.55725646 -0.10668831 100
-0.40259233 0.59284168 0.087989666 92
-0.39032498 0.57477725 -0.085308537 17
-0.40506095 0.59647685 0.11419716 63
-0.39847568 0.58677965 -0.062054887 37
-0.39595753 0.58307153 0.13700086 100
-3.063195 4.5107408 -0.28575432 2
-0.39084065 0.57553661 0.16061506 100
-3.2168407 4.7369933 1.5342793 100
-0.50792223 0.74794632 -0.24225463 47
-0.3864615 0.56908804 -0.15881544 38
-0.3747645 0.55186349 0.034960419 41
-0.39485458 0.58144736 -0.13661924 37
-0.4096688 0.60326219 0.063798003 67
-0.38508534 0.56706154 -0.10856552 9
-0.4003619 0.58955723 0.087502189 93
-0.39255542 0.5780617 -0.085796021 20
-0.40173167 0.59157431 0.11325856 73
-0.39847568 0.58677965 -0.062054887 37
-0.39485458 0.58144736 0.13661924 100
-3.1024666 4.5685706 -0.28941783 2
-0.39193544 0.57714874 0.16106495 100
-3.2146702 4.7337971 1.533244 100
-0.49839175 0.74505121 -0.24018407 52
-0.38356262 0.57339191 -0.15926534 38
-0.37534463 0.56110668 0.035379108 50
-0.38641942 0.57766253 -0.13509277 38
-0.39658505 0.59285927 0.062403511 52
-0.37672389 0.56316853 -0.10731404 9
-0.40175492 0.60058773 0.08872088 91
-0.38188791 0.57088834 -0.084333584 100
-0.39539531 0.59108073 0.11263282 74
-0.37775281 0.56470674 -0.059440218 41
-0.39187732 0.58582157 0.13700086 100
-3.3592234 5.021739 -0.31663254 2
-0.38681316 0.57825112 0.16061506 100
-3.1750991 4.74649 1.5301383 100
-0.50054002 0.74826258 -0.24121936 60
-3.3299658 4.9780016 0.10453992 20
-0.37814507 0.56529313 -0.15701583 39
-0.38311803 0.57272726 0.036111809 78
-0.38860258 0.58092612 -0.135856 37
-0.4054473 0.60610753 0.063798003 50
-0.37892053 0.56645232 -0.10793978 100
-0.39292511 0.58738798 0.086770974 95
-0.39182141 0.585738 -0.086527236 100
-0.39649364 0.59272259 0.11294568 74
-0.38550726 0.57629895 -0.060660396 39
-0.38641942 0.57766253 0.13509277 100
-3.5635529 5.3271937 -0.33589217 2
-0.3900637 0.58311039 0.16196476 100
-3.5312092 5.2788424 -0.11085769 18
-3.1772475 4.7497015 1.5311735 100
-0.5006184 0.75980467 -0.24380754 52
-3.3050339 5.0161562 0.10485405 36
-0.37633374 0.57117385 -0.15791564 38
-0.37361598 0.56704897 0.035588451 100
-0.38885814 0.59018248 -0.13738248 36
-0.39682126 0.6022684 0.063100755 51
-0.37821722 0.57403243 -0.10887839 9
-0.38772267 0.58845913 0.086527236 100
-0.38007742 0.57685572 -0.08482106 17
-0.39560652 0.60042471 0.11388429 73
-0.38366696 0.58230364 -0.06100902 39
-0.38669783 0.58690369 0.13661924 100
-3.5130892 5.3319283 -0.33463609 2
-0.38491118 0.58419204 0.16151486 100
-3.4480612 5.2332335 -0.10939168 12
-3.1482627 4.7782192 1.533244 100
-0.50168127 0.76141781 -0.24432518 51
-3.3226371 5.0428734 0.10541254 13
-0.37740594 0.57280111 -0.15836555 38
-0.3692205 0.56037784 0.035169762 100
-0.38669783 0.58690369 -0.13661924 37
-0.39462888 0.59894091 0.062752135 52
-0.37713039 0.57238293 -0.10856552 9
-0.38881484 0.5901168 0.086770974 95
-0.38007742 0.57685572 -0.08482106 17
-0.38908553 0.59052759 0.11200707 75
-0.38366696 0.58230364 -0.06100902 39
-0.38669783 0.58690369 0.13661924 100
-3.5493519 5.3869653 -0.33809027 2
-0.38062245 0.57768291 0.15971525 100
-3.4139547 5.181469 -0.10830963 8
-3.15464 4.7878985 1.5363499 100
-0.48794064 0.75193721 -0.24018407 63
-3.2764654 5.0491719 0.10506348 13
-0.37233707 0.57378721 -0.15791564 38
-0.37399697 0.57634515 0.036007136 100
-0.37831631 0.58300149 -0.13509277 38
-0.39477608 0.60836667 0.063449383 50
-0.37204996 0.57334477 -0.10825265 9
-0.39224964 0.60447335 0.088477142 91
-0.37387982 0.57616466 -0.084333584 17
-0.38387814 0.59157246 0.11169421 76
-0.37633875 0.57995397 -0.060486086 39
-0.38259107 0.58958906 0.13661924 100
-0.37870181 0.58359551 0.16061506 100
-3.1127248 4.7968407 1.5322088 100
-0.49004382 0.75517833 -0.24121936 60
-3.2731998 5.0441394 0.10495877 9
-0.37976259 0.58523023 -0.16106495 37
-0.37834576 0.58304685 0.036425825 100
-0.39220929 0.60441113 -0.14005381 34
-0.38935333 0.60000998 0.062577821 70
-0.36882409 0.56837356 -0.10731404 9
-0.3900885 0.60114288 0.087989666 92
-0.38144389 0.58782119 -0.086039759 100
-0.39678159 0.61145723 0.11544864 78
-0.37416965 0.57661128 -0.060137462 40
-0.37724763 0.58135456 0.13471115 100
-0.38082337 0.58686495 0.16151486 100
-3.5061445 5.4031172 -0.1124284 46
-3.1190343 4.8065639 1.5353146 100
-0.48371953 0.75695318 -0.24070171 51
-3.2443662 5.0769777 0.1051682 2
-0.37251964 0.58294094 -0.15971525 37
-0.36458686 0.57052726 0.035483778 100
-0.37529418 0.58728272 -0.13547438 37
-0.38837358 0.60775018 0.063100755 68
-0.36271974 0.5676055 -0.10668831 9
-0.38588226 0.60385156 0.087989666 92
-0.37946871 0.59381527 -0.086527236 100
-0.38399363 0.60089612 0.11294568 64
-0.36584362 0.57249391 -0.059440218 41
-0.37212268 0.58231974 0.13432953 100
-0.38301316 0.59936184 0.16421427 100
-3.4704921 5.4308329 -0.11249821 45
-3.0854025 4.8282218 1.5353146 100
-0.49308184 0.77160388 -0.24536045 48
-3.3595827 5.2572751 0.10890301 0
-0.36517417 0.57144636 -0.15656593 39
-0.36996424 0.57894212 0.036007136 100
-0.38058001 0.59555429 -0.13738248 36
-0.39695644 0.62118107 0.064495251 48
-0.36271974 0.5676055 -0.10668831 9
-0.37839976 0.59214252 0.086283498 96
-0.37412408 0.58545166 -0.085308537 17
-0.3925032 0.61421239 0.11544864 61
-0.37228078 0.58256716 -0.060486086 39
-0.37529418 0.58728272 0.13547438 100
-0.38394544 0.60082072 -0.037367873 37
-0.37356901 0.58458304 0.16016515 98
-3.4737225 5.4358878 -0.11260293 40
-3.0874829 4.8314776 1.5363499 100
-0.48665419 0.77339232 -0.24484281 41
-0.36532733 0.58057928 -0.15836555 38
-0.36378607 0.57812995 0.035797793 100
-0.37013948 0.58822674 -0.13509277 38
-0.39261013 0.62393719 0.064495251 48
-0.36400855 0.57848346 -0.10825265 9
-0.37742832 0.59981024 0.087014712 100
-0.36262721 0.57628828 -0.083602369 100
-0.37873721 0.60189033 0.11263282 64
-0.36714354 0.58346564 -0.060311776 40
-0.36909387 0.58656508 0.13471115 100
-0.36697719 0.58320123 -0.036111809 40
-0.37051663 0.58882612 0.16061506 100
-3.4399483 5.4667764 -0.11274254 40
-3.0598512 4.8627248 1.5394557 100
-0.48253873 0.76685202 -0.24277227 46
-3.2194934 5.1164289 0.10551725 0
-0.36636519 0.58222866 -0.15881544 38
-0.35846755 0.56967771 0.035274435 100
-0.3795498 0.60318166 -0.13852733 35
-0.38624349 0.6138193 0.063449383 50
-0.36926877 0.58684307 -0.10981699 100
-0.37742832 0.59981024 0.087014712 100
-0.3721422 0.5914095 -0.085796021 16
-0.37663311 0.5985465 0.11200707 65
-0.35971576 0.57166141 -0.059091594 41
-0.37536743 0.59653503 0.13700086 100
-0.39463344 0.62715262 -0.038833279 33
-0.37259236 0.59212488 0.16151486 100
-3.4346235 5.4583139 -0.11256802 39
-3.053678 4.8529143 1.5363499 100
-0.47208625 0.76199096 -0.24018407 63
-3.3616796 5.4260626 0.11141616 0
-0.36434421 0.58808529 -0.15971525 37
-0.3565855 0.57556206 0.035483778 100
-0.36705786 0.5924654 -0.13547438 37
-0.38404745 0.61988819 0.063798003 50
-0.36100149 0.58268982 -0.10856552 100
-0.37323168 0.60243052 0.087014712 95
-0.37114075 0.59905559 -0.086527236 100
-0.37348568 0.60284048 0.11231995 75
-0.36201194 0.58432084 -0.060137462 40
-0.37222767 0.60080999 0.13738248 100
-0.40917924 0.6604532 -0.040717375 29
-0.37050214 0.59802479 0.16241466 100
-3.3932743 5.4770594 -0.11246331 37
-3.0176892 4.8708301 1.5353146 100
-0.47412109 0.76527536 -0.24121936 60
-3.1994932 5.1642785 0.10604082 0
-0.35818627 0.57814586 -0.15701583 39
-0.36500052 0.58914465 0.036321152 100
-0.36705786 0.5924654 -0.13547438 37
-0.38089952 0.61480713 0.063275069 51
-0.3547594 0.57261449 -0.10668831 100
-0.37636808 0.60749298 0.087745927 92
-0.36800435 0.59399313 -0.085796021 100
-0.37868744 0.61123663 0.11388429 73
-0.36306125 0.58601451 -0.060311776 40
-0.36705786 0.5924654 0.13547438 100
-0.37762299 0.60951853 -0.037577216 36
-0.37050214 0.59802479 0.16241466 100
-3.4006464 5.4889584 -0.11270764 36
-3.0217588 4.877399 1.5373851 100
-0.47594467 0.78002864 -0.24484281 49
-3.276756 5.3702955 0.10981054 0
-0.35525772 0.58223408 -0.15746574 39
-0.35161924 0.57627094 0.035379108 100
-0.36608434 0.59997785 -0.13661924 37
-0.37566811 0.61568481 0.063100755 51
-0.3570269 0.58513361 -0.10856552 9
-0.36705455 0.60156792 0.086527236 96
-0.36498663 0.59817886 -0.086039759 16
-0.36937365 0.60536873 0.11231995 65
-0.36425278 0.59697616 -0.06118333 38
-0.35892627 0.58824646 0.13394791 100
-0.36826396 0.60355008 -0.037053857 37
-0.36236286 0.59387875 0.16061506 100
-3.3621643 5.5102715 -0.11267274 33
-2.9884899 4.8978543 1.5373851 100
-0.47996956 0.78662509 -0.24691337 50
-3.3871617 5.55124 0.11351045 0
-0.35728776 0.5855611 -0.15836555 38
-0.35369983 0.57968086 0.035588451 100
-0.36812949 0.60332972 -0.13738248 36
-0.37981915 0.62248796 0.063798003 50
-0.35496911 0.58176106 -0.10793978 9
-0.37119037 0.60834616 0.087502189 93
-0.36085081 0.59140062 -0.085064799 17
-0.37760481 0.61885887 0.11482289 62
-0.36840382 0.60377926 -0.061880577 37
-0.36506176 0.59830195 0.13623762 100
-0.37242514 0.6103698 -0.037472546 36
-0.36033282 0.59055167 0.15971525 100
-3.3694551 5.5222206 -0.11291707 33
-2.9945271 4.9077487 1.540491 100
-0.46849811 0.78002012 -0.24380754 52
-3.1588745 5.2593288 0.10708796 0
-0.35720465 0.59472346 -0.16016515 37
-0.35170105 0.58556032 0.035797793 100
-0.3578434 0.59578693 -0.13509277 38
-0.36930898 0.61487645 0.062752135 52
-0.35496745 0.59099865 -0.10919125 100
-0.3700006 0.61602795 0.088233404 91
-0.3618238 0.60241407 -0.086283498 100
-0.371241 0.61809313 0.11419716 72
-0.35597283 0.59267259 -0.060486086 39
-0.36087596 0.60083598 0.13623762 100
-0.36404145 0.60610628 -0.037053857 37
-0.35820803 0.596394 0.16061506 100
-3.3225839 5.5318952 -0.11263783 33
-2.9582026 4.9252229 1.5394557 100
-0.46252999 0.77008355 -0.24070171 61
-0.36036703 0.59998864 0.012216684 39
-0.35820803 0.596394 -0.16061506 37
-0.35581452 0.59240896 0.036216483 100
-0.3598651 0.59915292 -0.135856 37
-0.37341243 0.62170839 0.063449383 50
-0.35089904 0.584225 -0.10793978 100
-0.374089 0.62283486 0.089208357 90
-0.3577354 0.5956071 -0.085308537 100
-0.36717263 0.61131948 0.11294568 64
-0.35597283 0.59267259 -0.060486086 39
-0.36087596 0.60083598 0.13623762 100
-0.3619847 0.60268199 -0.036844514 38
-0.36222157 0.60307628 0.16241466 100
-3.3287618 5.5421805 -0.11284726 28
-2.9562132 4.9219103 1.5384204 100
-0.46205807 0.78160882 -0.2432899 63
-0.35209906 0.59560424 0.012077065 40
-0.34808552 0.58881503 -0.15791564 38
-0.35573563 0.6017558 0.036635168 100
-0.36166799 0.61179084 -0.13814571 36
-0.37109083 0.62773037 0.063798003 50
-0.34882236 0.59006143 -0.10856552 9
-0.36165017 0.61176068 0.087258451 100
-0.35861957 0.6066342 -0.086527236 100
-0.3649064 0.61726886 0.11357142 63
-0.34777093 0.58828282 -0.059788838 40
-0.35267624 0.59658056 0.13471115 100
-0.35980117 0.60863298 -0.037053857 100
-0.35800248 0.60559034 0.16241466 100
-3.2960949 5.575613 -0.11305669 29
-2.9237461 4.9457545 1.5394557 100
-0.46893978 0.79324979 -0.24691337 50
-0.35616958 0.60248983 0.012216684 39
-0.34511045 0.58378237 -0.15656593 39
-0.35370287 0.59831721 0.036425825 100
-0.36366615 0.6151709 -0.13890895 35
-0.36906302 0.62430012 0.063449383 50
-0.34480137 0.58325958 -0.10731404 100
-0.35861957 0.6066342 0.086527236 77
-0.35558897 0.60150772 -0.085796021 16
-0.35988012 0.60876656 0.11200707 65
-0.35892391 0.60714906 -0.061706267 38
-0.3546744 0.59996063 0.13547438 100
-0.35471925 0.6000365 -0.036530498 100
-0.35800248 0.60559034 0.16241466 100
-3.2960949 5.575613 -0.11305669 19
-2.9296448 4.9557328 1.5425615 100
-0.46436194 0.79817408 -0.24743101 56
-0.35798827 0.61533242 0.012426114 37
-0.34494632 0.59291518 -0.15836555 38
-0.34951723 0.6007719 0.036425825 100
-0.35343906 0.60751295 -0.13661924 37
-0.36870328 0.63375002 0.064146623 49
-0.34270778 0.5890674 -0.10793978 100
-0.35437575 0.60912305 0.086527236 100
-0.35138103 0.60397553 -0.085796021 16
-0.36257491 0.62321621 0.11419716 72
-0.34966695 0.60102928 -0.06083471 39
-0.35047728 0.60242206 0.13547438 100
-0.35052159 0.60249823 -0.036530498 100
-0.34886619 0.59965283 0.16016515 100
-3.2560842 5.5967593 -0.11302178 13
-2.900805 4.9860835 1.5456673 100
-0.46339047 0.79650426 -0.24691337 58
-0.35999945 0.61878937 0.012495923 100
-0.34592628 0.59459955 -0.15881544 38
-0.34549978 0.59386647 0.036007136 100
-0.35442632 0.60920995 -0.13700086 36
-0.36469561 0.62686145 0.063449383 50
-0.34966126 0.6010195 -0.11012986 100
-0.36435819 0.62628144 0.088964619 72
-0.3503828 0.6022597 -0.085552283 100
-0.35860148 0.61638647 0.11294568 64
-0.34866506 0.59930712 -0.060660396 39
-0.35738811 0.61430085 0.13814571 100
-0.35755211 0.61458272 -0.0372632 7
-0.35572591 0.61144376 0.16331446 99
-3.2510564 5.5881171 -0.11284726 9
-2.8949761 4.9760647 1.5425615 100
-0.45397943 0.79301369 -0.24484281 74
-0.35269025 0.61608118 0.012391209 100
-0.34757587 0.6071474 -0.16151486 36
-0.34333 0.59973067 0.036216483 100
-0.34723845 0.60655797 -0.135856 37
-0.35833073 0.625934 0.063100755 51
-0.34251264 0.5983029 -0.10919125 9
-0.35899082 0.62708706 0.08872088 100
-0.34616971 0.60469109 -0.085552283 100
-0.34938252 0.61030322 0.11138134 66
-0.34249291 0.59826839 -0.060311776 40
-0.34626308 0.60485417 0.13547438 100
-0.35622969 0.62226391 -0.037577216 7
-0.35048041 0.61222106 0.16286457 100
-3.219913 5.6245608 -0.1131265 4
-2.8601663 4.9961538 1.5425615 100
-0.45781857 0.79971993 -0.24691337 50
-0.34275532 0.59872681 0.01204216 100
-0.3417668 0.59700006 -0.15881544 38
-0.3492837 0.61013061 0.036844514 100
-0.35114002 0.61337322 -0.13738248 36
-0.36031047 0.62939221 0.063449383 50
-0.33858699 0.59144557 -0.10793978 100
-0.3560321 0.6219188 0.087989666 74
-0.34616971 0.60469109 -0.085552283 100
-0.36017805 0.62916094 0.11482289 62
-0.34447262 0.60172659 -0.060660396 39
-0.34626308 0.60485417 0.13547438 100
-0.34729913 0.60666394 -0.036635168 9
-0.3514486 0.61391228 0.16331446 99
-3.2228935 5.6297674 -0.11323121 2
-2.8640056 5.0028601 1.5446321 100
-0.45032823 0.79953015 -0.24587809 77
-0.34641793 0.61504376 0.012321399 6
-0.33472162 0.59427768 -0.15746574 39
-0.33521414 0.59515208 0.035797793 100
-0.34588587 0.61409914 -0.13700086 36
-0.35590771 0.63189226 0.063449383 50
-0.33735797 0.59895837 -0.10887839 11
-0.34388816 0.61055231 0.086039759 97
-0.33901721 0.60190421 -0.08482106 100
-0.35480753 0.62993896 0.11451003 63
-0.33830789 0.60064489 -0.060311776 40
-0.34203199 0.60725677 0.13547438 100
-0.34403557 0.61081398 -0.036739841 100
-0.34715414 0.61635089 0.16331446 100
-3.1992137 5.6800075 -0.11378969 1
-2.8346977 5.0328317 1.5477378 100
-0.45791271 0.81299591 -0.25001919 40
-0.3405298 0.60458976 0.01211197 100
-0.33950338 0.60276735 -0.15971525 37
-0.33521414 0.59515208 0.035797793 100
-0.34684935 0.61580968 -0.13738248 36
-0.35981879 0.63883615 0.064146623 49
-0.33832738 0.60067952 -0.10919125 9
-0.35363004 0.62784839 0.088477142 82
-0.33901721 0.60190421 -0.08482106 100
-0.35674635 0.63338125 0.11513577 62
-0.34515226 0.61279666 -0.061531954 38
-0.34299546 0.60896736 0.135856 100
-0.3450157 0.61255419 -0.036844514 7
-0.3442851 0.61125708 0.16196476 100
-3.1786053 5.6434183 -0.11305669 1
-2.8346977 5.0328317 1.5477378 100
-0.44660813 0.80603409 -0.24691337 72
-0.34599236 0.62444377 0.012461018 100
-0.33150914 0.59830457 -0.15791564 38
-0.33298701 0.60097182 0.036007136 100
-0.33873573 0.61134708 -0.135856 37
-0.35535014 0.64133257 0.064146623 49
-0.33699778 0.60821038 -0.11012986 100
-0.34346572 0.61988366 0.087014712 100
-0.335769 0.60599273 -0.085064799 100
-0.34561419 0.62376124 0.11294568 64
-0.33796889 0.60996306 -0.06100902 39
-0.34254175 0.61821616 0.13738248 100
-0.34266686 0.61844194 -0.037053857 9
-0.3390649 0.6119411 0.16151486 100
-3.1904955 5.7581758 -0.11490665 1
-2.7994933 5.0524988 1.5477378 100
-0.4475444 0.80772388 -0.24743101 56
-0.3479307 0.62794203 0.012530828 100
-0.33717597 0.60853201 -0.16061506 37
-0.32814708 0.59223676 0.035483778 100
-0.34444478 0.6216507 -0.13814571 36
-0.35631576 0.64307535 0.064320937 65
-0.33412564 0.60302681 -0.10919125 100
-0.3511624 0.63377464 0.088964619 72
-0.33480692 0.60425633 -0.08482106 100
-0.34178469 0.61684978 0.11169421 66
-0.33507201 0.60473478 -0.060486086 39
-0.33968726 0.61306435 0.13623762 100
-0.34169888 0.61669493 -0.036949184 9
-0.33717597 0.60853201 0.16061506 100
-0.34889987 0.62969118 -0.012565733 8
-2.7994933 5.0524988 1.5477378 100
-0.43912116 0.80573976 -0.24587809 85
-0.34066761 0.62508816 0.012426114 100
-0.33105433 0.60744882 -0.15971525 37
-0.33451796 0.61380422 0.036635168 100
-0.33633849 0.6171447 -0.13661924 37
-0.34514356 0.63330102 0.063100755 51
-0.32612643 0.59840667 -0.10793978 9
-0.34102964 0.62575245 0.087502189 93
-0.33912978 0.62226635 -0.087014712 100
-0.34030584 0.62442434 0.11263282 64
-0.32988861 0.60530984 -0.060311776 40
-0.33352003 0.61197311 0.13547438 100
-0.33834103 0.62081909 -0.037053857 9
-0.33851472 0.6211378 0.16331446 100
-0.34066761 0.62508816 -0.012426114 24
-2.7641523 5.0719199 1.5477378 100
-0.44559243 0.81761384 -0.24950156 48
-0.33492601 0.61455292 0.012216684 100
-0.32545903 0.5971821 -0.15701583 39
-0.33738524 0.6190654 0.036949184 100
-0.33915699 0.6223163 -0.1377641 36
-0.35086417 0.64379776 0.064146623 49
-0.3336888 0.61228275 -0.11044274 100
-0.34292954 0.62923855 0.087989666 74
-0.33532998 0.61529422 -0.086039759 100
-0.34219643 0.62789339 0.11325856 63
-0.33370236 0.61230767 -0.06100902 39
-0.3382175 0.62059247 0.13738248 100
-0.33451796 0.61380422 -0.036635168 100
-0.33851472 0.6211378 0.16331446 99
-0.33971068 0.62333226 -0.012391209 57
-2.7660012 5.0753121 1.5487732 100
-0.43713579 0.81559658 -0.24794865 67
-0.33535075 0.62568867 0.012391209 6
-0.32220259 0.60115725 -0.15746574 39
-0.31701568 0.5914796 0.035169762 100
-0.3357316 0.62639928 -0.13814571 36
-0.35012591 0.65325576 0.064843871 48
-0.32567349 0.60763317 -0.10919125 100
-0.33665279 0.62811804 0.087502189 100
-0.32539979 0.60712242 -0.084577322 100
-0.3406041 0.63549024 0.11419716 63
-0.32753712 0.61111027 -0.060660396 39
-0.32923955 0.6142866 0.13547438 100
-0.32739419 0.61084354 -0.036321152 100
-0.33048782 0.61661559 0.16151486 100
-0.32590425 0.60806364 -0.01204216 70
-2.7359772 5.1047149 1.551879 100
-0.438961 0.81900197 -0.24898392 43
-0.33251679 0.6204012 0.012286494 100
-0.32956722 0.61489797 -0.16106495 37
-0.32267669 0.60204178 0.035797793 100
-0.32460237 0.60563469 -0.13356629 39
-0.3463611 0.64623153 0.064146623 49
-0.32660666 0.60937423 -0.10950413 100
-0.34227931 0.63861585 0.088964619 81
-0.3291508 0.61412096 -0.085552283 100
-0.33500513 0.62504381 0.11231995 75
-0.32565475 0.60759813 -0.060311776 40
-0.33387673 0.62293851 0.13738248 100
-0.33588567 0.62668675 -0.0372632 7
-0.33048782 0.61661559 0.16151486 100
-0.32401493 0.60453862 -0.011972351 87
-2.7359772 5.1047149 1.551879 100
-0.42616817 0.8082999 -0.24484281 66
-0.3292188 0.62441903 0.012321399 100
-0.32628304 0.61885083 -0.16151486 36
-0.32229725 0.61129111 0.036216483 100
-0.33237574 0.63040668 -0.13852733 35
-0.34195435 0.64857417 0.064146623 49
-0.32245126 0.61158323 -0.10950413 100
-0.33792448 0.64093083 0.088964619 90
-0.3332954 0.63215095 -0.087745927 17
-0.33350673 0.63255179 0.11325856 63
-0.32336989 0.61332554 -0.060660396 39
-0.32688192 0.61998671 0.13623762 100
-0.3297492 0.62542504 -0.037053857 7
-0.32628304 0.61885083 0.16151486 100
-0.31149882 0.59081012 -0.011658208 100
-2.6957614 5.1129665 1.5487732 100
-0.42887115 0.81342649 -0.24639574 45
-0.32362303 0.61380571 0.01211197 100
-0.3244653 0.61540318 -0.16061506 37
-0.32695472 0.62012482 0.036739841 100
-0.32596627 0.61825007 -0.135856 37
-0.33823746 0.64152443 0.063449383 50
-0.31415966 0.59585679 -0.10668831 9
-0.33977613 0.6444428 0.089452095 71
-0.32959211 0.62512708 -0.086770974 100
-0.33811316 0.6412887 0.11482289 62
-0.32522833 0.61685044 -0.06100902 39
-0.32871318 0.62346005 0.13700086 100
-0.3325437 0.63072526 -0.037367873 100
-0.33446282 0.6343652 0.16556397 100
-0.32175776 0.61026794 -0.01204216 100
-2.7029693 5.1266375 1.5529143 100
-0.42215073 0.81475931 -0.24587809 46
-0.32934192 0.63563651 0.012495923 100
-0.31198472 0.60213673 -0.15656593 39
-0.31148294 0.60116827 0.035483778 100
-0.32966253 0.63625526 -0.13929057 35
-0.34280407 0.66161871 0.065192498 47
-0.31988415 0.61738282 -0.11012986 100
-0.32328394 0.62394446 0.086283498 96
-0.32237071 0.62218189 -0.086039759 100
-0.33533311 0.64719957 0.11544864 61
-0.32080594 0.6191619 -0.06100902 39
-0.32334024 0.62405312 0.13661924 100
-0.31883356 0.61535513 -0.036321152 9
-0.32184631 0.62116981 0.16151486 100
-0.32198232 0.6214323 -0.012216684 100
-2.6679926 5.1492786 1.5539496 100
-0.42481694 0.81990516 -0.24743101 7
-0.32842198 0.63386095 0.012461018 100
-0.31467423 0.60732758 -0.15791564 38
-0.31423941 0.60648835 0.035797793 100
-0.33056572 0.6379984 -0.13967219 35
-0.3409709 0.65808064 0.064843871 48
-0.31534034 0.60861319 -0.10856552 9
-0.32967654 0.63628232 0.087989666 92
-0.32237071 0.62218189 -0.086039759 16
-0.33169806 0.64018387 0.11419716 63
-0.32080594 0.6191619 -0.06100902 39
-0.32063067 0.61882359 0.13547438 100
-0.32159004 0.62067521 -0.036635168 7
-0.32184631 0.62116981 0.16151486 100
-0.31646264 0.61077923 -0.012007256 100
-2.6715474 5.1561399 1.5560201 100
-0.40943846 0.80391502 -0.24173699 9
-0.32308128 0.63435644 0.012426114 100
-0.31396428 0.61645555 -0.15971525 37
-0.3136234 0.61578625 0.036216483 100
-0.31986666 0.62804466 -0.13700086 36
-0.32913461 0.6462419 0.063449383 50
-0.31646276 0.6213612 -0.11044274 100
-0.32432556 0.63679951 0.087745927 92
-0.3144156 0.6173417 -0.085064799 100
-0.32363471 0.63544303 0.11294568 74
-0.31285873 0.61428487 -0.060311776 40
-0.32343066 0.63504237 0.13852733 100
-0.32178125 0.63180381 -0.03715853 100
-0.32103953 0.63034755 0.16331446 99
-0.30946833 0.60762793 -0.011902541 100
-2.6337326 5.1712222 1.5549848 100
-0.95126492 1.8677683 -0.56163734 1
-0.31672856 0.62188309 0.012181779 8
-0.32015514 0.62861103 -0.16286457 36
-0.31543627 0.61934572 0.036425825 100
-0.32075766 0.62979406 -0.13738248 36
-0.33275148 0.65334344 0.064146623 49
-0.31646276 0.6213612 -0.11044274 100
-0.33063188 0.64918172 0.089452095 88
-0.31892014 0.62618613 -0.086283498 100
-0.32542771 0.63896352 0.11357142 63
-0.31195453 0.61250949 -0.060137462 40
-0.31273872 0.6140492 0.13394791 100
-0.3199684 0.62824434 -0.036949184 100
-0.32280836 0.63382053 0.16421427 99
-0.31037584 0.60940981 -0.011937446 100
-2.631979 5.1677794 1.5539496 100
-0.92901444 1.855199 -0.55594331 1
-0.3151744 0.62938869 0.012286494 100
-0.30976096 0.61857837 -0.15971525 37
-0.30853036 0.61612087 0.036111809 100
-0.31734246 0.63371825 -0.1377641 36
-0.32026765 0.63955975 0.062577821 52
-0.30515003 0.60937053 -0.10793978 100
-0.31998351 0.63899231 0.087745927 92
-0.31909469 0.63721734 -0.087502189 100
-0.32814685 0.65529412 0.11607438 60
-0.30867022 0.61640018 -0.060311776 40
-0.3138262 0.62669647 0.13623762 100
-0.31389612 0.62683606 -0.036739841 7
-0.3219769 0.64297301 0.16601388 97
-0.30622056 0.61150837 -0.011937446 100
-2.6002023 5.1924844 1.5560201 100
-0.9220944 1.84138 -0.55180222 1
-0.31606978 0.63117677 0.012321399 6
-0.30627069 0.61160845 -0.15791564 38
-0.3147904 0.62862188 0.036844514 100
-0.32437497 0.64776188 -0.14081703 34
-0.32740453 0.65381175 0.063972317 49
-0.31045699 0.6199683 -0.10981699 100
-0.32176122 0.6425423 0.088233404 91
-0.31287277 0.62479252 -0.085796021 100
-0.33080032 0.66059297 0.11701298 59
-0.31045443 0.61996317 -0.060660396 39
-0.31030995 0.61967462 0.13471115 100
-0.31568468 0.63040775 -0.036949184 7
-0.31848663 0.63600308 0.16421427 99
-0.31248823 0.62402463 -0.012181779 100
-2.6053925 5.2028484 1.5591259 100
-0.31607005 0.64233917 0.012495923 100
-0.30113307 0.61198318 -0.15746574 39
-0.30863056 0.62722009 0.036635168 100
-0.3181113 0.64648753 -0.14005381 34
-0.32811004 0.66680765 0.065018184 48
-0.30612126 0.62212056 -0.10981699 100
-0.31814405 0.64655405 0.088477142 91
-0.30937976 0.62874264 -0.086039759 100
-0.31658694 0.64338964 0.11357142 63
-0.30963737 0.6292662 -0.061357643 38
-0.31291059 0.63591826 0.1377641 100
-0.30951235 0.62901217 -0.036739841 7
-0.30973685 0.62946844 0.16196476 96
-0.30106112 0.61183703 -0.011902541 100
-2.5707123 5.2243772 1.5601612 100
-0.30988991 0.62977946 0.012251589 100
-0.30457458 0.61897731 -0.15926534 38
-0.30510333 0.62005186 0.036216483 100
-0.31031021 0.63063359 -0.13661924 37
-0.32547107 0.6614446 0.064495251 48
-0.30786556 0.62566543 -0.11044274 100
-0.31814405 0.64655405 0.088477142 100
-0.31200904 0.63408607 -0.086770974 100
-0.32007551 0.65047932 0.11482289 62
-0.30260015 0.61496466 -0.059963152 40
-0.31464416 0.63944137 0.13852733 100
-0.31480315 0.63976449 -0.037367873 7
-0.312318 0.63471401 0.16331446 99
-0.30282688 0.61542547 -0.011972351 100
-2.5690064 5.2209105 1.5591259 100
-0.31070769 0.6427297 0.012461018 6
-0.30533484 0.63161546 -0.16196476 36
-0.30424425 0.62935942 0.036635168 100
-0.3016277 0.62394685 -0.13471115 38
-0.31304109 0.6475566 0.062926449 51
-0.29833165 0.61712867 -0.10856552 100
-0.31362253 0.64875937 0.088477142 91
-0.30325484 0.62731278 -0.085552283 100
-0.31036809 0.6420272 0.11294568 64
-0.30263528 0.62603116 -0.06083471 39
-0.30760896 0.6363197 0.13738248 100
-0.31380621 0.64913929 -0.037786562 7
-0.3078793 0.63687891 0.16331446 99
-0.30287471 0.62652642 -0.012146875 100
-2.5308137 5.2352395 1.5580907 100
-0.30374503 0.62832677 0.012181779 100
-0.30279037 0.62635195 -0.16061506 37
-0.30772132 0.6365521 0.037053857 100
-0.31102684 0.64338994 -0.13890895 35
-0.31911114 0.6601131 0.064146623 49
-0.29575241 0.61179322 -0.10762691 100
-0.31362253 0.64875937 0.088477142 91
-0.30757472 0.63624883 -0.086770974 100
-0.31810579 0.65803343 0.1157615 61
-0.29829955 0.61706221 -0.059963152 40
-0.30333662 0.62748194 0.13547438 100
-0.30598277 0.63295579 -0.036844514 7
-0.31127191 0.64389682 0.16511407 97
-0.30374503 0.62832677 -0.012181779 100
-2.5324953 5.2387185 1.5591259 100
-0.30192435 0.6358512 0.012286494 100
-0.29506674 0.62140912 -0.15881544 38
-0.3015565 0.63507652 0.036844514 100
-0.31073815 0.65441298 -0.14081703 34
-0.31449494 0.66232479 0.064146623 49
-0.29486334 0.62098074 -0.10887839 100
-0.30993721 0.65272623 0.08872088 91
-0.29971948 0.63120776 -0.085796021 100
-0.3194353 0.67272913 0.11795159 58
-0.29398441 0.61912972 -0.059963152 40
-0.30231705 0.63667822 0.13700086 100
-0.30326989 0.63868487 -0.037053857 7
-0.3067691 0.64605421 0.16511407 97
-0.29849339 0.62862563 -0.012146875 100
-2.5008326 5.2667413 1.5622318 100
-0.30278209 0.63765758 0.012321399 6
-0.29590261 0.62316948 -0.15926534 38
-0.29641631 0.62425131 0.036216483 100
-0.30147493 0.63490474 -0.13661924 37
-0.31876796 0.67132378 0.065018184 48
-0.29655796 0.62454963 -0.10950413 100
-0.30908573 0.65093303 0.088477142 91
-0.29716507 0.62582815 -0.085064799 100
-0.30842027 0.6495316 0.11388429 63
-0.30253047 0.63712764 -0.061706267 38
-0.30231705 0.63667822 0.13700086 100
-0.29898641 0.62966394 -0.036530498 7
-0.30091792 0.63373166 0.16196476 96
-0.29334694 0.61778724 -0.011937446 100
-2.5024898 5.2702317 1.563267 100
-0.3050839 0.65425456 0.012600637 100
-0.29319206 0.62875235 -0.16016515 37
-0.29542735 0.63354599 0.036635168 100
-0.29869458 0.64055258 -0.13738248 36
-0.3132315 0.67172712 0.064843871 48
-0.29386026 0.63018537 -0.11012986 100
-0.30453387 0.65307498 0.088477142 100
-0.29530555 0.63328481 -0.085796021 100
-0.30387822 0.65166891 0.11388429 63
-0.29470706 0.63200128 -0.06100902 39
-0.3011837 0.64589053 0.13852733 100
-0.29964775 0.64259666 -0.03715853 100
-0.29648635 0.63581699 0.16196476 96
-0.29071707 0.6234448 -0.012007256 100
-2.4672689 5.2910752 1.5643023 100
-0.92093956 1.9749613 -0.58389574 1
-0.30001327 0.64338052 0.012391209 100
-0.29319206 0.62875235 -0.16016515 37
-0.2971155 0.63716626 0.036844514 100
-0.29869458 0.64055258 -0.13738248 36
-0.30817938 0.66089278 0.063798003 50
-0.29636475 0.63555622 -0.11106847 100
-0.30788961 0.66027141 0.089452095 88
-0.29530555 0.63328481 -0.085796021 100
-0.30471304 0.65345925 0.11419716 63
-0.29807514 0.63922417 -0.061706267 38
-0.29786485 0.63877326 0.13700086 100
-0.2979596 0.6389764 -0.036949184 7
-0.29978064 0.64288163 0.16376437 88
-0.2924073 0.62706947 -0.012077065 100
-2.465636 5.2875738 1.563267 100
-0.86611557 1.8917605 -0.55749625 1
-0.29801166 0.65091389 0.012495923 100
-0.28636175 0.62546831 -0.15881544 38
-0.29598573 0.6464889 0.0372632 100
-0.29666722 0.64797741 -0.13852733 35
-0.30438739 0.66483974 0.063972317 49
-0.2902759 0.63401759 -0.11044274 100
-0.30409893 0.66420966 0.089695834 88
-0.29252994 0.63894081 -0.086283498 100
-0.30425522 0.66455102 0.1157615 61
-0.2919465 0.63766646 -0.061357643 38
-0.29176363 0.63726705 0.13623762 100
-0.29764858 0.65012085 -0.037472546 7
-0.29934132 0.65381813 0.16601388 97
-0.28635755 0.62545919 -0.012007256 100
-2.4318788 5.3116841 1.5653375 100
-0.87013656 1.9005431 -0.5600844 1
-0.29468191 0.64364111 0.012356304 100
