# .PCD v0.7 - Point Cloud Data file format
VERSION 0.7
FIELDS x y z
SIZE 4 4 4
TYPE F F F
COUNT 1 1 1
WIDTH 1396
HEIGHT 1
VIEWPOINT 0 0 0 1 0 0 0
POINTS 1396
DATA ascii
0.10813039 0.7955662 0.18535967
0.12025531 0.7998715 -0.15722661
0.12025531 0.7998715 0.15722661
0.22847007 0.79051733 -0.043124828
0.22847007 0.79051733 0.043124828
0.23426872 0.78986537 0.014380783
0.6038624 0.55898696 -0.043124828
0.69077128 -0.42082161 -0.15722661
0.69077128 -0.42082161 -0.15722661
-0.079135612 0.80999863 0.128902
0.0081273522 0.80283982 0.18535967
0.02541635 0.82247812 -0.043124828
0.030400759 0.80230516 -0.18535967
0.04131984 0.801817 -0.18535967
0.047406893 0.80747038 -0.15722661
0.053183764 0.80711043 0.15722661
0.053512152 0.81209403 -0.128902
0.059471361 0.8156929 0.10042034
0.063831463 0.80033952 0.18535967
0.065022185 0.81526917 -0.10042034
0.069793656 0.80584407 0.15722661
0.081679903 0.80974603 -0.128902
0.092407182 0.80356503 -0.15722661
0.091724023 0.79762429 0.18535967
0.097151108 0.79698145 -0.18535967
0.097151108 0.79698145 0.18535967
0.10347769 0.80221456 -0.15722661
0.10501331 0.81411952 -0.071816333
0.10893574 0.80149162 -0.15722661
0.1272362 0.80790019 -0.10042034
0.12490618 0.79310542 0.18535967
0.15336774 0.79418772 0.15722661
0.1550737 0.80302173 -0.10042034
0.15223391 0.78831631 0.18535967
0.21186462 0.7951287 -0.043124828
0.21727194 0.79366815 0.043124828
0.63121688 0.52946615 0.014380783
0.73511916 0.3719798 -0.014380783
-0.75448549 -0.3233729 0.071816333
-0.75448549 -0.3233729 0.071816333
-0.81953609 -0.04668013 0.071816333
-0.81776154 -0.012560904 0.10042034
-0.14532053 0.79569954 0.15722661
-0.13502528 0.80257612 -0.128902
-0.095491961 0.80320424 0.15722661
-0.084788494 0.80942643 -0.128902
-0.084788494 0.80942643 0.128902
-0.062154923 0.81147832 -0.128902
-0.062460624 0.81546944 0.10042034
-0.056766097 0.8158856 0.10042034
-0.056766097 0.8158856 0.10042034
-0.045010872 0.80760747 0.15722661
-0.039089646 0.80791569 -0.15722661
-0.028400177 0.81736475 0.10042034
-0.028504575 0.82036936 0.071816333
-0.016985213 0.81768161 0.10042034
-0.011317804 0.82078642 0.071816333
-0.0054176333 0.79590446 -0.21326689
-0.0054649948 0.80286235 0.18535967
-0.0054649948 0.80286235 -0.18535967
0.0082384422 0.81381351 -0.128902
0.013731988 0.80276352 -0.18535967
0.013919685 0.81373614 -0.128902
0.019316241 0.81362593 -0.128902
0.025137883 0.81346691 -0.128902
0.036493205 0.81303662 0.128902
0.036493205 0.81303662 0.128902
0.042090628 0.81677425 0.10042034
0.041884623 0.81277668 -0.128902
0.042245351 0.81977665 -0.071816333
0.047934216 0.81645215 0.10042034
0.047699612 0.81245619 0.128902
0.047699612 0.81245619 0.128902
0.047056414 0.8015008 0.18535967
0.076398782 0.81428188 0.10042034
0.080578506 0.79882723 0.18535967
0.10411662 0.80716789 0.128902
0.10411662 0.80716789 -0.128902
0.12159295 0.80876875 -0.10042034
0.13273242 0.80701542 0.10042034
0.13273242 0.80701542 -0.10042034
0.13273242 0.80701542 -0.10042034
0.14887196 0.80012339 0.128902
0.16067603 0.80191958 -0.10042034
0.60626835 0.55340505 0.071816333
0.61239588 0.52841944 -0.15722661
0.62750518 0.53385997 0.014380783
0.6385479 0.52060139 0.014380783
0.80675107 -0.15156238 -0.071816333
-0.70224857 -0.41134804 0.128902
-0.12955923 0.80347663 -0.128902
-0.078649983 0.80502796 0.15722661
-0.078649983 0.80502796 0.15722661
-0.056488268 0.81189245 -0.128902
-0.056488268 0.81189245 0.128902
-0.051068805 0.81626207 0.10042034
-0.044678111 0.80163687 -0.18535967
-0.044678111 0.80163687 0.18535967
-0.03382048 0.81715846 0.10042034
-0.033654954 0.81315905 -0.128902
-0.028261179 0.81336439 0.128902
-0.022137601 0.80257571 -0.18535967
-0.01667417 0.80270779 -0.18535967
-0.0055669402 0.81783909 0.10042034
0.22874877 0.79148167 0.014380783
0.63775909 0.51995832 -0.071990646
0.64486748 0.51111567 0.071990646
-0.039766029 0.82189536 0.071990646
0.0080764731 0.79781383 -0.21378453
0.0192443 0.81059563 -0.15760823
0.019458361 0.81961215 -0.10066408
0.053905867 0.81806898 -0.10066408
0.07117486 0.82179153 0.043229502
0.091149814 0.79263097 -0.21378453
0.099203587 0.81381899 -0.10066408
0.16362186 0.78802198 0.18580957
0.206444 0.79653889 -0.071990646
0.21186103 0.79511523 -0.071990646
0.6229924 0.53756285 -0.071990646
-0.767169 -0.29756525 0.071990646
-0.82183188 -0.041057009 0.071990646
-0.8098141 -0.040456627 0.15760823
-0.15012008 0.7907052 0.18580957
-0.090100423 0.8058024 0.15760823
-0.089434311 0.79984516 -0.18580957
-0.068317525 0.81699169 0.10066408
-0.028155921 0.81033504 -0.15760823
-0.016839134 0.81064916 0.15760823
-0.0055804518 0.8198241 0.10066408
0.0082990564 0.81980109 -0.10066408
0.014022099 0.81972319 -0.10066408
0.030701522 0.81024259 0.15760823
0.030701522 0.81024259 -0.15760823
0.031157138 0.82226676 0.071990646
0.035775743 0.79705226 -0.21378453
0.04805056 0.81843382 -0.10066408
0.053312853 0.80906945 0.15760823
0.05852399 0.80269903 -0.18580957
0.06446296 0.80825752 -0.15760823
0.080074072 0.7938264 -0.21378453
0.082280859 0.81570375 -0.10066408
0.091946654 0.79956025 0.18580957
0.093661845 0.81447542 0.10066408
0.093661845 0.81447542 -0.10066408
0.098718055 0.80983597 -0.12921487
0.10296198 0.79821652 0.18580957
0.11041483 0.81237388 -0.10066408
0.12129152 0.80676383 -0.12921487
0.12692079 0.80589741 -0.12921487
0.13159086 0.8000747 -0.15760823
0.14274882 0.79815942 -0.15760823
0.1492333 0.80206543 -0.12921487
0.16585834 0.7987932 -0.12921487
0.17227404 0.80153877 -0.10066408
0.17227404 0.80153877 -0.10066408
0.17590891 0.79151231 0.15760823
0.18344848 0.79905534 -0.10066408
0.22348683 0.79401565 0.043229502
0.64128357 0.51560521 -0.071990646
0.73441422 0.37776175 -0.014415688
-0.75183392 -0.3344236 0.071990646
-0.78081429 -0.26596293 -0.043229502
-0.11861552 0.80716163 -0.12921487
-0.11788762 0.8022083 0.15760823
-0.10059318 0.79851854 0.18580957
-0.095016062 0.79920131 0.18580957
-0.09065675 0.81077796 -0.12921487
-0.073657222 0.81249869 -0.12921487
-0.073205203 0.80751264 0.15760823
-0.074019492 0.81649488 0.10066408
-0.061465636 0.80247915 0.18580957
-0.055861823 0.80288869 0.18580957
-0.051192757 0.81824327 -0.10066408
-0.051192757 0.81824327 -0.10066408
-0.04590163 0.82358986 0.043229502
-0.045398723 0.81456643 -0.12921487
-0.045398723 0.81456643 0.12921487
-0.039620385 0.81888521 -0.10066408
-0.039426472 0.81487733 0.12921487
-0.033529609 0.81013048 -0.15760823
-0.022494657 0.81552041 0.12921487
-0.016943108 0.81565464 -0.12921487
-0.0055531398 0.81581169 -0.12921487
0.04106117 0.79679745 -0.21378453
0.052918714 0.80308807 0.18580957
0.07658422 0.81625831 0.10066408
0.13615906 0.79322857 0.18580957
0.16911927 0.78686053 0.18580957
0.21779929 0.79559457 -0.043229502
0.23483734 0.79178256 -0.014415688
0.62902826 0.53515571 0.014415688
0.65783352 0.4993228 0.014415688
0.64663351 -0.47918257 -0.18580957
-0.15123817 0.79659444 0.15760823
-0.12812245 0.79456621 0.18580957
-0.10616539 0.79779679 0.18580957
-0.056277882 0.80886865 -0.15760823
-0.011303722 0.81976521 -0.10066408
0.0081668058 0.80673707 -0.18625948
0.018982334 0.79956126 -0.21430217
0.059760056 0.81965256 -0.10090782
0.065337829 0.8192268 0.10090782
0.069613978 0.80376941 -0.18625948
0.07091257 0.81876308 -0.10090782
0.071173243 0.82177281 0.072164953
0.086571582 0.80212015 -0.18625948
0.17742363 0.79832786 -0.12952773
0.18389267 0.80099005 0.10090782
0.22985919 0.79532379 -0.014450593
0.23540595 0.79369968 -0.014450593
0.52870035 0.629188 -0.10090782
0.61448389 0.52278191 -0.18625948
0.62172318 0.51415139 -0.18625948
0.63920218 0.49225193 -0.18625948
-0.12843266 0.79649007 -0.18625948
-0.10721508 0.80568486 0.15798984
-0.090318583 0.8077535 0.15798984
-0.072839946 0.80348349 -0.18625948
-0.028015437 0.80629182 -0.18625948
-0.028015437 0.80629182 -0.18625948
-0.016755113 0.80660439 -0.18625948
0.0022529473 0.80677527 -0.18625948
0.013798648 0.80666041 0.18625948
0.01941001 0.81757557 0.12952773
0.019148279 0.80655116 -0.18625948
0.025104899 0.81239951 0.15798984
0.024919299 0.8063935 -0.18625948
0.030965887 0.8172195 -0.12952773
0.036175881 0.80596697 0.18625948
0.042294953 0.82073915 -0.10090782
0.04152042 0.8057093 -0.18625948
0.041829668 0.81171024 0.15798984
0.053771921 0.81603622 0.12952773
0.053046845 0.80503255 0.18625948
0.058665693 0.80464262 0.18625948
0.058665693 0.80464262 -0.18625948
0.076393917 0.81423002 -0.12952773
0.077051848 0.82124251 0.072164953
0.082480088 0.81767881 0.10090782
0.080969661 0.80270499 -0.18625948
0.092855759 0.80746579 -0.15798984
0.099443793 0.81578952 -0.10090782
0.10771365 0.79250008 -0.21430217
0.11014046 0.81035525 0.12952773
0.11437305 0.79863024 -0.18625948
0.11522491 0.80457842 0.15798984
0.11522491 0.80457842 0.15798984
0.12083907 0.80375439 -0.15798984
0.1215852 0.80871725 -0.12952773
0.12644733 0.80289119 0.15798984
0.13190947 0.80201191 -0.15798984
0.13190947 0.80201191 0.15798984
0.13835436 0.80601776 0.12952773
0.13903484 0.80998206 0.10090782
0.13750532 0.80107147 0.15798984
0.14468615 0.80899167 0.10090782
0.15033039 0.80796188 -0.10090782
0.15849933 0.79105586 -0.18625948
0.18601024 0.78504241 0.18625948
0.19410364 0.79443711 -0.12952773
0.19291247 0.78956187 0.15798984
0.22402796 0.79593819 -0.043334171
0.22957915 0.7943548 0.043334171
0.56071943 0.58840203 -0.15798984
0.56888014 0.5805158 -0.15798984
0.59259355 0.55628777 -0.15798984
0.60411358 0.54375541 -0.15798984
0.60789496 0.53952473 -0.15798984
0.61906058 0.52667558 -0.15798984
0.61811864 0.51847929 -0.18625948
0.69988889 -0.41325387 -0.15798984
0.69698679 -0.41812992 -0.15798984
0.68815279 -0.4325147 -0.15798984
0.67894393 -0.44683143 -0.15798984
0.62167907 -0.53133953 -0.12952773
-0.66288704 -0.45986107 0.18625948
-0.66030878 -0.45127699 0.21430217
-0.68350911 -0.43981647 0.15798984
-0.68350911 -0.43981647 0.15798984
-0.70275468 -0.4182612 0.12952773
-0.70852602 -0.40840843 0.12952773
-0.77694982 -0.28294018 -0.043334171
-0.77505547 -0.28225031 0.072164953
-0.7811901 -0.24196815 -0.12952773
-0.82148331 -0.023807058 0.10090782
-0.13484812 0.80152303 0.15798984
-0.11729941 0.79820567 -0.18625948
-0.11255619 0.80495608 -0.15798984
-0.079519764 0.81393069 0.12952773
-0.068147764 0.81496161 0.12952773
-0.067729563 0.80996042 0.15798984
-0.068482943 0.81896991 -0.10090782
-0.061614465 0.8044222 -0.18625948
-0.05641415 0.81082714 0.15798984
-0.05641415 0.81082714 0.15798984
-0.050752178 0.81120121 0.15798984
-0.050752178 0.81120121 0.15798984
-0.03336231 0.80608833 -0.18625948
-0.034109585 0.82414365 0.072164953
-0.022743326 0.82453561 0.072164953
-0.022660028 0.82151574 0.10090782
-0.016879905 0.812612 0.15798984
-0.011206439 0.81271005 -0.15798984
-0.011331092 0.8217501 0.10090782
-0.005491524 0.80675972 -0.18625948
-0.0055939639 0.82180917 -0.10090782
-0.0055665853 0.81778699 0.12952773
0.0082276324 0.81274569 0.15798984
0.036670353 0.8169834 -0.12952773
0.036670353 0.8169834 -0.12952773
0.059467573 0.81564099 -0.12952773
0.059467573 0.81564099 0.12952773
0.093429111 0.8124516 0.12952773
0.13272397 0.80696404 -0.12952773
0.1606658 0.8018685 -0.12952773
0.16625994 0.80072731 0.12952773
0.53743368 0.62174487 -0.10090782
0.76161295 0.28384671 -0.15798984
0.60275692 -0.55271214 -0.12952773
0.58616936 -0.57602704 -0.10090782
-0.72038078 -0.39554164 0.10090782
-0.72038078 -0.39554164 0.10090782
-0.72305644 -0.39062902 0.10090782
-0.79691112 -0.067758977 0.21430217
-0.16360372 0.80127424 -0.12952773
-0.12454848 0.80826622 0.12952773
-0.11817306 0.8041507 0.15798984
-0.11325118 0.80992639 0.12952773
-0.084677242 0.80836439 -0.15798984
-0.085619137 0.81735611 0.10090782
-0.084677242 0.80836439 0.15798984
-0.066646211 0.79700494 -0.21430217
-0.051065553 0.81621009 -0.12952773
-0.027772645 0.79930425 -0.21430217
-0.022798914 0.8265509 -0.043334171
0.002283742 0.81780279 -0.12952773
0.002283742 0.81780279 -0.12952773
0.059245396 0.81259364 -0.15837146
0.063739039 0.79918069 -0.2148198
0.063739039 0.79918069 -0.2148198
0.076955087 0.82021111 -0.10115156
0.087966867 0.81504798 -0.12984061
0.10972897 0.80732769 0.15837146
0.10891775 0.80135918 0.18670937
0.11919343 0.79280853 -0.2148198
0.12581569 0.79888046 -0.18670937
0.12816268 0.81378293 -0.10115156
0.12753542 0.80980003 -0.12984061
0.14503562 0.81094575 -0.10115156
0.14503562 0.81094575 0.10115156
0.15069352 0.80991346 -0.10115156
0.15888219 0.7929666 0.18670937
0.18433686 0.80292481 0.10115156
0.18993779 0.80161834 -0.10115156
0.18993779 0.80161834 -0.10115156
0.20111161 0.79888827 0.10115156
0.20111161 0.79888827 -0.10115156
0.21340732 0.80091846 0.043438844
0.23568708 0.79464751 0.043438844
0.25258496 0.79050046 0.014485497
0.25258496 0.79050046 0.014485497
0.25258496 0.79050046 -0.014485497
0.81560528 -0.15322581 -0.014485497
-0.72480291 -0.39157256 0.10115156
-0.74322355 -0.36233377 0.072339267
-0.82910877 -0.035619758 0.014485497
-0.16870064 0.79709381 -0.15837146
-0.12316582 0.79929328 0.18670937
-0.12209842 0.79236633 -0.2148198
-0.12316582 0.79929328 0.18670937
-0.11199394 0.80093503 0.18670937
-0.10747406 0.80763096 -0.15837146
-0.089867406 0.80371851 0.18670937
-0.077955484 0.79791939 -0.2148198
-0.07971184 0.81589669 -0.12984061
-0.066807196 0.79893005 -0.2148198
-0.068648361 0.82094806 0.10115156
-0.062915437 0.82140732 -0.10115156
-0.02829227 0.81425917 0.15837146
-0.022714764 0.8235001 -0.10115156
-0.022714764 0.8235001 -0.10115156
0.0082475059 0.81470883 -0.15837146
0.025445463 0.82342023 -0.10115156
0.025320925 0.81939018 0.12984061
0.042189609 0.81869495 0.12984061
0.041620713 0.80765545 0.18670937
0.047752086 0.81335002 0.15837146
0.054166913 0.8220306 -0.10115156
0.080461837 0.7976706 0.2148198
0.088724472 0.8220675 -0.072339267
0.087427035 0.81004632 0.15837146
0.093654782 0.81441402 -0.12984061
0.098587371 0.80876386 0.15837146
0.10539056 0.8170442 0.10115156
0.10539056 0.8170442 0.10115156
0.1104065 0.81231266 -0.12984061
0.1104065 0.81231266 -0.12984061
0.12247833 0.81465787 -0.10115156
0.13937066 0.81193852 -0.10115156
0.13783745 0.80300641 0.15837146
0.15620288 0.808869 -0.10115156
0.15543838 0.80491012 0.12984061
0.15620288 0.808869 0.10115156
0.16184601 0.80775875 -0.10115156
0.17310831 0.80542034 0.10115156
0.19337845 0.79146904 -0.15837146
0.19552946 0.80027282 0.10115156
0.24122897 0.79298276 0.043438844
0.24706012 0.79224455 -0.014485497
0.2634601 0.78694278 -0.014485497
0.62066388 0.53555369 0.12984061
0.62438762 0.53120762 0.12984061
0.64319748 0.52439219 0.014485497
0.69376194 -0.44984597 -0.072339267
0.65311056 -0.47695518 -0.18670937
-0.66769016 -0.45632166 0.18670937
-0.66769016 -0.45632166 0.18670937
-0.71023744 -0.40939492 0.12984061
-0.74821007 -0.35192144 0.072339267
-0.81876022 -0.040903553 0.12984061
-0.82809865 -0.035576362 0.043438844
-0.81902581 -0.035186581 0.12984061
-0.82809865 -0.035576362 0.043438844
-0.25468448 0.78664023 -0.072339267
-0.17297293 0.79001266 0.18670937
-0.1639989 0.80320966 -0.12984061
-0.15625174 0.79348916 0.18670937
-0.14529653 0.79556805 0.18670937
-0.11918993 0.81107038 -0.12984061
-0.10813767 0.81261778 -0.12984061
-0.10183316 0.80836159 0.15837146
-0.096781209 0.81404841 -0.12984061
-0.095476188 0.80307156 0.18670937
-0.096187294 0.80905282 -0.15837146
-0.096781209 0.81404841 -0.12984061
-0.079222672 0.81088978 -0.15837146
-0.078636982 0.80489492 0.18670937
-0.074013911 0.81643331 -0.12984061
-0.06176329 0.80636525 -0.18670937
-0.050061014 0.80015397 -0.2148198
-0.050498653 0.80714899 -0.18670937
-0.039812252 0.82285076 -0.10115156
-0.017171783 0.82666326 0.072339267
-0.011053825 0.80164224 -0.2148198
-0.0055800313 0.81976235 -0.12984061
0.019337492 0.81452107 0.15837146
0.065736406 0.82422435 0.072339267
0.10005043 0.82076609 0.072339267
0.20744371 0.80039626 -0.072339267
0.22402154 0.79591542 -0.072339267
0.63718438 0.52693748 0.072339267
0.64084756 0.52247626 0.072339267
-0.14728253 0.80644238 -0.12984061
-0.12408316 0.80524647 -0.15837146
-0.12408316 0.80524647 -0.15837146
-0.10246193 0.81335294 -0.12984061
-0.091095768 0.81470424 -0.12984061
-0.051629759 0.8252281 -0.072339267
-0.0399586 0.82587552 0.072339267
-0.03369198 0.81405365 0.15837146
-0.0055457884 0.81473172 -0.15837146
0.036621384 0.81589234 0.15875308
0.037164852 0.82800031 0.07251358
0.071517073 0.82574272 0.07251358
0.098824933 0.8107127 0.15875308
0.20283182 0.80572152 -0.043543514
0.62524676 0.54716945 0.043543514
-0.78648603 -0.26789486 -0.043543514
-0.11309994 0.80884475 0.15875308
-0.06237324 0.81432855 -0.15875308
-0.06237324 0.81432855 0.15875308
0.008318427 0.82171458 -0.13015348
0.008318427 0.82171458 0.13015348
0.013745147 0.80353272 -0.21533744
0.013865308 0.81055731 -0.18715927
0.01938409 0.81648374 0.15875308
0.02482268 0.80326682 0.21533744
0.030695911 0.81009454 -0.18715927
0.054031689 0.81997842 0.13015348
0.070906401 0.81869185 0.13015348
0.075727873 0.80713117 -0.18715927
0.076291896 0.81314266 -0.15875308
0.076291896 0.81314266 0.15875308
0.088938266 0.8240484 0.07251358
0.093304344 0.81136662 0.15875308
0.10448232 0.81000304 0.15875308
0.10448232 0.81000304 0.15875308
0.11578155 0.80846524 -0.15875308
0.11948065 0.79471892 -0.21533744
0.12052516 0.80166644 0.18715927
0.13336514 0.81086236 0.13015348
0.13336514 0.81086236 0.13015348
0.13714811 0.79899049 -0.18715927
0.14467356 0.80892128 0.13015348
0.14378573 0.80395716 0.15875308
0.15031731 0.80789155 0.13015348
0.16045125 0.80079764 0.15875308
0.17828076 0.80218452 0.13015348
0.18139721 0.79012054 -0.18715927
0.20490278 0.79059237 0.15875308
0.23012577 0.79624611 -0.07251358
0.23625499 0.79656231 0.043543514
0.24210522 0.79586321 0.014520402
0.24765544 0.79415357 0.014520402
0.25226855 0.78951019 -0.07251358
0.59874332 0.54653621 -0.18715927
0.62959433 0.52810514 0.13015348
0.69441938 -0.42988738 -0.15875308
0.70035017 -0.44703197 -0.043543514
0.66290694 -0.47704908 -0.15875308
0.6279133 -0.54410738 -0.043543514
0.6133796 -0.53924662 -0.15875308
0.58900106 -0.57880974 -0.10139529
-0.74246067 -0.36839917 0.07251358
-0.78459662 -0.273379 -0.043543514
-0.33143753 0.76189047 -0.043543514
-0.15876915 0.80627316 0.13015348
-0.14673142 0.80342478 0.15875308
-0.14021499 0.79845798 0.18715927
-0.1300143 0.80629879 0.15875308
-0.1300143 0.80629879 0.15875308
-0.084457271 0.80626446 -0.18715927
-0.084457271 0.80626446 -0.18715927
-0.085086308 0.81226951 0.15875308
-0.073736966 0.81337833 0.15875308
-0.068476982 0.81889862 0.13015348
-0.061375566 0.80130321 0.21533744
-0.056267597 0.80872083 -0.18715927
-0.04511188 0.80941975 -0.18715927
-0.039469156 0.81575954 0.15875308
-0.039908186 0.82483351 0.10139529
-0.022158815 0.80334473 -0.21533744
-0.017066181 0.82157946 0.13015348
-0.011260576 0.8166362 0.15875308
-0.011427685 0.8287552 0.07251358
-0.0055934773 0.82173765 0.13015348
0.014054827 0.8216365 0.13015348
0.019503778 0.82152522 -0.13015348
0.019503778 0.82152522 0.13015348
0.030924534 0.81612813 0.15875308
0.036350645 0.80986053 -0.18715927
0.037028737 0.8249678 0.10139529
0.037028737 0.8249678 0.10139529
0.037028737 0.8249678 -0.10139529
0.042291272 0.82066774 0.13015348
0.048162714 0.82034409 -0.13015348
0.05449703 0.82704043 0.07251358
0.053303111 0.80892164 -0.18715927
0.06445118 0.80810982 -0.18715927
0.06445118 0.80810982 0.18715927
0.077424079 0.82520986 0.07251358
0.076762967 0.81816351 -0.13015348
0.086989805 0.80599517 -0.18715927
0.094342194 0.82039171 0.10139529
0.10370989 0.80401474 -0.18715927
0.11492558 0.80248833 -0.18715927
0.12217257 0.8126241 0.13015348
0.12217257 0.8126241 0.13015348
0.12847151 0.81574386 0.10139529
0.12611887 0.80080551 0.18715927
0.14272273 0.79801357 -0.18715927
0.1537119 0.7959699 -0.18715927
0.1660379 0.799658 0.15875308
0.16706313 0.80459553 -0.13015348
0.1660379 0.799658 0.15875308
0.17267615 0.80340964 -0.13015348
0.21339998 0.80089092 -0.07251358
0.2473537 0.79318607 0.043543514
0.26912996 0.78606427 -0.043543514
0.58736134 0.55875045 -0.18715927
0.61215442 0.55877793 -0.07251358
0.61083168 0.54213113 -0.15875308
0.62103373 -0.53814608 -0.13015348
-0.70319831 -0.42520136 0.13015348
-0.7798171 -0.27171364 -0.10139529
-0.78268367 -0.27271247 -0.07251358
-0.82545185 -0.023922069 0.10139529
-0.82559872 -0.018158792 0.10139529
-0.15327738 0.8073352 0.13015348
-0.15327738 0.8073352 -0.13015348
-0.14564663 0.79748511 -0.18715927
-0.14564663 0.79748511 -0.18715927
-0.13633621 0.81036812 -0.13015348
-0.13081709 0.81127739 -0.13015348
-0.12515016 0.81217086 0.13015348
-0.11379829 0.81383908 0.13015348
-0.10773303 0.80957711 0.15875308
-0.10132388 0.8043189 -0.18715927
-0.096419066 0.81100237 0.15875308
-0.086032756 0.82130468 0.10139529
-0.074192256 0.81840062 0.13015348
-0.067553617 0.80785638 -0.18715927
-0.051312245 0.82015312 0.13015348
-0.051312245 0.82015312 0.13015348
-0.038837839 0.80271131 0.21533744
-0.034148835 0.82509202 -0.10139529
-0.022658058 0.82144427 0.13015348
-0.011177327 0.81059885 -0.18715927
-0.011080461 0.80357391 0.21533744
-0.011080461 0.80357391 0.21533744
0.025381939 0.82136464 0.13015348
0.11121687 0.81827492 0.10139529
0.13402109 0.81485051 0.10139529
0.1678848 0.80855286 0.10139529
0.66023338 -0.48926067 -0.13015348
0.63563579 -0.52081788 -0.13015348
-0.033981699 0.8210538 0.13015348
0.25380224 0.79431009 -0.014555307
0.25920302 0.79256415 0.014555307
0.27574438 0.78696197 -0.014555307
0.64260292 0.5314185 0.014555307
-0.068220355 0.81582969 -0.1591347
-0.040004119 0.82681626 0.10163903
-0.03448274 0.83315969 0.014555307
-0.011413201 0.82770479 0.10163903
0.0082872529 0.81863511 -0.1591347
0.014088613 0.82361156 0.13046634
0.025099874 0.81223691 -0.18760918
0.02488235 0.80519778 -0.21585508
0.042758036 0.82972538 0.072687887
0.047214732 0.80419731 -0.21585508
0.04798222 0.81726974 -0.1591347
0.048515942 0.82636052 0.10163903
0.047214732 0.80419731 0.21585508
0.054427959 0.82599217 0.10163903
0.070640668 0.8156237 -0.1591347
0.069510758 0.80257761 -0.21585508
0.075252049 0.80205965 -0.21585508
0.076475292 0.81509733 0.1591347
0.083383158 0.82663155 0.072687887
0.088390805 0.81897593 -0.13046634
0.087848373 0.81395012 -0.1591347
0.088390805 0.81897593 0.13046634
0.10473348 0.81195015 -0.1591347
0.12081488 0.80359352 -0.18760918
0.12532641 0.79577374 -0.21585508
0.1374778 0.80091113 0.18760918
0.15141974 0.81381667 0.10163903
0.15141974 0.81381667 0.10163903
0.1540814 0.79788327 0.18760918
0.17761262 0.79917824 -0.1591347
0.19155471 0.80844247 -0.072687887
0.18735814 0.79073113 0.18760918
0.20282367 0.80568916 -0.072687887
0.1983802 0.78803813 0.18760918
0.20282367 0.80568916 -0.072687887
0.2089529 0.80621928 0.043648187
0.22180948 0.78805625 0.1591347
0.2362455 0.79653031 -0.072687887
0.2362455 0.79653031 -0.072687887
0.2426872 0.79777634 -0.014555307
0.24734376 0.79315418 -0.072687887
0.61362594 0.56012112 -0.072687887
0.82059085 -0.14823909 0.014555307
0.71835387 -0.41742083 -0.072687887
0.69401246 -0.45674846 -0.072687887
-0.75911558 -0.33766258 0.072687887
-0.77667785 -0.29503223 0.072687887
-0.78648269 -0.27403617 -0.043648187
-0.8035605 -0.057036087 0.21585508
-0.16377799 0.80212772 0.1591347
-0.15270296 0.80430961 -0.1591347
-0.12468115 0.80912715 0.1591347
-0.11902938 0.80997789 -0.1591347
-0.10719363 0.80552363 0.18760918
-0.10295573 0.81727266 -0.13046634
-0.096650846 0.81295186 -0.1591347
-0.089517929 0.80059296 -0.21585508
-0.089517929 0.80059296 -0.21585508
-0.085817479 0.81924957 -0.13046634
-0.083926596 0.80119842 -0.21585508
-0.085290842 0.8142221 -0.1591347
-0.057173803 0.82174551 -0.13046634
-0.051119946 0.81707948 -0.1591347
-0.050742019 0.81103885 0.18760918
-0.050302271 0.80401009 0.21585508
-0.022212081 0.80527586 -0.21585508
-0.022212081 0.80527586 0.21585508
-0.011357341 0.82365376 -0.13046634
0.0023002909 0.82372886 0.13046634
0.03612224 0.8047719 0.21585508
0.03612224 0.8047719 -0.21585508
0.03612224 0.8047719 0.21585508
0.066053204 0.82819653 0.072687887
0.08915206 0.8260293 0.072687887
0.11148421 0.82024193 -0.10163903
0.11677649 0.81541264 -0.13046634
0.14502132 0.81086582 -0.13046634
0.155229 0.80382591 0.1591347
0.18318756 0.79791886 0.1591347
0.19985774 0.79390746 0.1591347
0.21990873 0.80330008 -0.043648187
0.24180053 0.79486161 -0.072687887
0.24825077 0.79606265 -0.014555307
0.25287497 0.79140806 -0.072687887
0.2647298 0.7907353 0.014555307
0.2647298 0.7907353 -0.014555307
0.27010599 0.78891504 0.014555307
0.27010599 0.78891504 0.014555307
0.63133281 0.54475963 0.014555307
-0.71077102 -0.41634014 0.13046634
-0.76590824 -0.32195818 0.072687887
-0.80314273 -0.062644564 0.21585508
-0.19708528 0.79460025 -0.1591347
-0.15915079 0.80821133 -0.13046634
-0.14799233 0.81032884 -0.13046634
-0.13582528 0.8073312 -0.1591347
-0.13582528 0.8073312 0.1591347
-0.125451 0.81412321 -0.13046634
-0.11407185 0.81579542 -0.13046634
-0.06771601 0.80979836 -0.18760918
-0.055914048 0.80363935 0.21585508
-0.045838419 0.8224557 0.13046634
-0.038931198 0.80464089 -0.21585508
-0.038931198 0.80464089 -0.21585508
-0.022573143 0.81836581 -0.1591347
-0.022406261 0.8123157 0.18760918
0.0084304055 0.83277607 0.0728622
0.16301598 0.81359798 0.10188277
0.17913787 0.80604118 0.13077921
0.19477637 0.79719049 0.15951632
0.20256543 0.80466336 -0.10188277
0.21129034 0.79297346 0.15951632
0.22234139 0.78994608 0.15951632
-0.43169919 -0.70862663 -0.10188277
-0.14281486 0.813263 0.13077921
-0.10891939 0.81849211 0.13077921
-0.045666371 0.81936872 -0.15951632
-0.045666371 0.81936872 -0.15951632
0.002291657 0.82063711 -0.15951632
0.041558277 0.80644387 -0.21637273
0.042233817 0.81955284 -0.15951632
0.070286579 0.8115353 0.18805908
0.070810072 0.81757963 -0.15951632
0.093059808 0.80924016 -0.18805908
0.098565936 0.80858797 -0.18805908
0.098565936 0.80858797 0.18805908
0.10563288 0.81892276 0.13077921
0.1267252 0.80465549 -0.18805908
0.13318397 0.80976081 0.15951632
0.14447701 0.80782235 0.15951632
0.14340889 0.80185014 -0.18805908
0.14900333 0.80082941 -0.18805908
0.14771201 0.79388916 -0.21637273
0.16122264 0.80464762 -0.15951632
0.16869195 0.8124401 -0.10188277
0.16869195 0.8124401 -0.10188277
0.17244156 0.80231816 0.15951632
0.18001893 0.81000561 -0.10188277
0.18001893 0.81000561 -0.10188277
0.18362686 0.79983228 0.15951632
0.19037449 0.80346149 0.13077921
0.19597903 0.80211282 0.13077921
0.21259499 0.79786974 -0.13077921
0.21909325 0.80032122 -0.10188277
0.21989863 0.80326313 0.0728622
0.23038526 0.797144 -0.10188277
0.23123214 0.80007422 -0.0728622
0.23768041 0.8013683 0.014590212
0.23681203 0.79844046 0.0728622
0.2808761 0.78402531 -0.0728622
0.28725573 0.78496325 0.014590212
0.61755812 0.54810107 0.13077921
0.70371723 -0.44918117 -0.04375286
0.63520688 -0.52754623 -0.13077921
-0.7244646 -0.40455776 0.10188277
-0.78834039 -0.26852652 -0.0728622
-0.81988406 -0.035223451 0.15951632
-0.28478831 0.78586179 -0.014590212
-0.15953246 0.81014949 -0.13077921
-0.15855345 0.80517781 0.15951632
-0.13514443 0.80328435 -0.18805908
-0.12967356 0.80418563 -0.18805908
-0.11434539 0.81775177 -0.13077921
-0.090517052 0.80952853 -0.18805908
-0.079205446 0.81071341 -0.18805908
-0.080682956 0.82583666 -0.10188277
-0.079205446 0.81071341 -0.18805908
-0.080682956 0.82583666 -0.10188277
-0.067290135 0.80470544 0.21637273
-0.056538116 0.8126089 -0.18805908
-0.056959212 0.81866121 -0.15951632
-0.052002985 0.83119357 0.0728622
-0.03456543 0.83515769 -0.014590212
-0.011231064 0.81449592 -0.18805908
0.0022550016 0.80751085 -0.21637273
0.0083584189 0.82566518 0.13077921
0.047741704 0.81317312 -0.18805908
0.047741704 0.81317312 -0.18805908
0.048097283 0.81922966 0.15951632
0.065243386 0.8180427 0.15951632
0.08175198 0.81046063 0.18805908
0.09225332 0.80222702 -0.21637273
0.099913195 0.81964028 0.13077921
0.10330538 0.80087882 -0.21637273
0.10420849 0.80788016 -0.18805908
0.1220066 0.81152016 0.15951632
0.13219935 0.8037743 -0.18805908
0.15103999 0.81177568 -0.13077921
0.15011311 0.80679405 -0.15951632
0.15011311 0.80679405 0.15951632
0.16221812 0.80961603 0.13077921
0.16221812 0.80961603 0.13077921
0.16683617 0.8035025 -0.15951632
0.16560276 0.79756224 -0.18805908
0.17350632 0.8072722 -0.13077921
0.17350632 0.8072722 0.13077921
0.18226932 0.79391921 0.18805908
0.18920623 0.79853088 0.15951632
0.23739083 0.80039197 -0.04375286
0.59928161 0.57831538 0.0728622
0.60340458 0.57401222 0.0728622
0.61900222 0.5571565 0.0728622
0.61900222 0.5571565 -0.0728622
0.81849986 -0.1537696 -0.0728622
0.81740642 -0.15948001 -0.0728622
0.72467488 -0.41452146 -0.04375286
0.69775796 -0.43195415 -0.15951632
0.61253083 -0.54612869 -0.15951632
-0.76322228 -0.33328497 0.0728622
-0.16417074 0.80405134 -0.15951632
-0.15738127 0.79922521 0.18805908
-0.14088911 0.80229676 -0.18805908
-0.14193845 0.80827224 0.15951632
-0.11843274 0.8059178 -0.18805908
-0.11280353 0.80672497 -0.18805908
-0.11364369 0.81273347 0.15951632
-0.10745069 0.80745536 -0.18805908
-0.10181101 0.80818582 -0.18805908
-0.097480834 0.81993312 0.13077921
-0.097480834 0.81993312 0.13077921
-0.073543712 0.81124663 -0.18805908
-0.061670639 0.80515563 0.21637273
-0.061670639 0.80515563 -0.21637273
-0.056048136 0.80556655 -0.21637273
-0.033392727 0.80682325 -0.21637273
-0.033392727 0.80682325 0.21637273
-0.028496793 0.82014543 0.15951632
0.17672232 0.79517233 0.18805908
-0.75112587 -0.35971802 0.0728622
-0.095332965 0.80186689 -0.21637273
-0.095332965 0.80186689 0.21637273
-0.016770391 0.80733985 -0.21637273
0.014278103 0.83468902 0.073036514
0.019211588 0.80921781 -0.21689036
0.031609785 0.83421248 0.073036514
0.064353392 0.80688363 0.21689036
0.140714 0.81976444 -0.10212651
0.20638046 0.79629374 -0.15989794
-0.20600496 0.80583876 0.10212651
-0.080875978 0.82781231 0.10212651
-0.078706868 0.80561018 -0.21689036
-0.017337296 0.83463109 0.073036514
0.0082654385 0.81648028 -0.18850899
0.02500169 0.80905962 -0.21689036
0.025408098 0.82221109 -0.15989794
0.030649336 0.80886537 -0.21689036
0.030649336 0.80886537 -0.21689036
0.047441181 0.80805439 -0.21689036
0.054087374 0.82082349 -0.15989794
0.066126928 0.82912087 0.10212651
0.086857811 0.8047722 -0.21689036
0.086857811 0.8047722 -0.21689036
0.094557479 0.82226378 -0.13109209
0.097945489 0.80349815 -0.21689036
0.097945489 0.80349815 -0.21689036
0.097945489 0.80349815 0.21689036
0.12592751 0.79959041 -0.21689036
0.13916601 0.81074625 -0.15989794
0.16160834 0.80657262 -0.15989794
0.1715762 0.79829192 0.18850899
0.18270537 0.79581851 -0.18850899
0.1852027 0.80669624 -0.13109209
0.19933167 0.79181767 0.18850899
0.21572709 0.80962455 -0.014625116
0.2204247 0.80518484 -0.073036514
0.21559563 0.78754485 0.18850899
0.22618079 0.8035869 -0.073036514
0.23390734 0.78864694 -0.15989794
0.24296024 0.79867387 -0.073036514
0.24913751 0.79890615 0.04385753
0.26502764 0.7916249 -0.073036514
0.28258047 0.78878284 0.014625116
0.62285602 0.54507726 0.13109209
0.63204312 0.54537249 0.073036514
0.712933 -0.43432266 -0.073036514
0.70216078 -0.45529193 -0.04385753
-0.70826948 -0.42826769 0.13109209
-0.7804029 -0.29644725 -0.073036514
-0.78832799 -0.27467912 -0.073036514
-0.83377135 -0.04165348 0.073036514
-0.19392098 0.80464494 -0.13109209
-0.18575974 0.79511112 0.18850899
-0.18575974 0.79511112 0.18850899
-0.17594087 0.80356795 -0.15989794
-0.17594087 0.80356795 0.15989794
-0.15775777 0.80113721 -0.18850899
-0.15893276 0.80710411 0.15989794
-0.11768723 0.80084473 -0.21689036
-0.10117014 0.8030985 -0.21689036
-0.095561035 0.8037852 -0.21689036
-0.098194636 0.82593703 0.10212651
-0.091973804 0.82255679 0.13109209
-0.061818179 0.80708182 -0.21689036
-0.056182224 0.80749375 -0.21689036
-0.045043431 0.8081916 -0.21689036
-0.01681051 0.80927128 -0.21689036
-0.0055096806 0.80942708 -0.21689036
0.048510041 0.82626003 -0.13109209
0.053222232 0.80769426 -0.21689036
0.053222232 0.80769426 -0.21689036
0.053222232 0.80769426 0.21689036
0.058859661 0.80730301 -0.21689036
0.065399468 0.81999975 -0.15989794
0.069844142 0.80642694 -0.21689036
0.11078659 0.81510919 -0.15989794
0.12365884 0.82251 0.10212651
0.15047222 0.80872416 -0.15989794
0.15597351 0.8076812 -0.15989794
0.16340597 0.81554443 0.10212651
0.1756099 0.79016691 -0.21689036
0.19176851 0.80934483 0.10212651
0.19176851 0.80934483 0.10212651
0.21179584 0.79487056 0.15989794
0.21854253 0.7983095 0.13109209
0.22424947 0.79672521 -0.13109209
0.23235184 0.80394846 -0.04385753
0.24385116 0.8016026 -0.014625116
0.26044619 0.79636544 0.014625116
0.26044619 0.79636544 -0.014625116
0.61903554 0.54941231 0.13109209
0.6395961 0.53649467 0.073036514
0.70852697 -0.44532019 -0.04385753
-0.68871814 -0.44982663 0.15989794
-0.74781495 -0.3710559 0.073036514
-0.82733548 -0.023976658 0.13109209
-0.16906744 0.79882699 0.18850899
-0.16760226 0.79190409 0.21689036
-0.1655796 0.81095147 0.13109209
-0.16456349 0.8059749 0.15989794
-0.1509811 0.7952404 -0.21689036
-0.14669697 0.80323619 0.18850899
-0.13546775 0.80520612 0.18850899
-0.13546775 0.80520612 0.18850899
-0.10677431 0.80237263 -0.21689036
-0.10677431 0.80237263 0.21689036
-0.10677431 0.80237263 -0.21689036
-0.067451119 0.80663061 0.21689036
-0.050985388 0.81492877 -0.18850899
-0.039459892 0.81556809 -0.18850899
-0.039459892 0.81556809 -0.18850899
-0.028741343 0.82718366 -0.13109209
-0.022513725 0.8162117 -0.18850899
-0.022681408 0.82229084 -0.15989794
-0.0056823352 0.83479184 0.073036514
0.065070905 0.81588006 -0.18895888
0.59673733 0.56017768 -0.18895888
0.0082133627 0.8113361 0.217408
0.03670017 0.81764764 -0.18895888
0.053349257 0.80962187 0.217408
0.082143135 0.81433839 -0.18895888
0.083265923 0.82546926 0.13140495
0.083265923 0.82546926 0.13140495
0.11023001 0.81101412 -0.18895888
0.13283187 0.80762011 -0.18895888
0.15083136 0.81065428 0.16027956
0.1551899 0.80362344 -0.18895888
0.17198569 0.80019712 -0.18895888
0.17326663 0.80615699 0.16027956
0.18450546 0.80365926 -0.16027956
0.19426145 0.79508305 0.18895888
0.19426145 0.79508305 -0.18895888
0.20253849 0.80455631 -0.13140495
0.20253849 0.80455631 0.13140495
0.2053436 0.79229319 0.18895888
0.23233852 0.80390233 0.073210821
0.23319049 0.80685019 -0.014660021
0.57682389 0.58066231 -0.18895888
0.5808636 0.57662117 -0.18895888
0.61214578 0.54329741 -0.18895888
0.62434256 0.54637814 0.13140495
0.78218424 0.26095641 -0.16027956
0.82648331 -0.14350133 -0.043962203
0.82648331 -0.14350133 -0.043962203
0.72056919 -0.42546472 -0.073210821
0.71758133 -0.43048483 -0.073210821
0.62315744 -0.53998631 -0.16027956
-0.25838295 0.79806364 0.043962203
-0.20548597 0.80380857 -0.13140495
-0.16800226 0.79379404 -0.217408
-0.15931208 0.80903035 -0.16027956
-0.12557814 0.8149482 0.16027956
-0.058081072 0.83478546 0.073210821
-0.028175147 0.81088835 0.217408
-0.0055228299 0.81135887 0.217408
0.013877312 0.81125903 0.217408
0.019570475 0.82433456 -0.16027956
0.025280448 0.81808037 0.18895888
0.030722484 0.81079584 0.217408
0.047554407 0.80998296 0.217408
0.060849003 0.83458829 0.073210821
0.060329422 0.82746184 0.13140495
0.060849003 0.83458829 0.073210821
0.065960333 0.82703203 -0.13140495
0.071588188 0.82656389 0.13140495
0.076456025 0.81489205 -0.18895888
0.09350507 0.81311214 -0.18895888
0.092694722 0.80606544 0.217408
0.098179244 0.80541581 0.217408
0.1061383 0.82284105 -0.13140495
0.10927472 0.8039856 0.217408
0.10927472 0.8039856 -0.217408
0.12395397 0.82447302 0.10237025
0.12622805 0.80149877 0.217408
0.13168071 0.80062097 -0.217408
0.13846685 0.80667311 -0.18895888
0.13726684 0.7996822 -0.217408
0.14971626 0.80466115 -0.18895888
0.14971626 0.80466115 0.18895888
0.15731114 0.81460786 -0.13140495
0.16079643 0.80252045 -0.18895888
0.19691673 0.8059507 -0.13140495
0.19980741 0.79370749 -0.18895888
0.20917413 0.80707282 -0.10237025
0.20815037 0.80312276 -0.13140495
0.20917413 0.80707282 -0.10237025
0.2154519 0.80859178 0.073210821
0.21466281 0.80563033 0.10237025
0.21466281 0.80563033 -0.10237025
0.21771978 0.79530406 0.16027956
0.22014154 0.80415052 -0.10237025
0.22727473 0.80747354 0.043962203
0.23148757 0.8009581 -0.10237025
0.24146055 0.79374403 -0.13140495
0.2482108 0.7959345 -0.10237025
0.27105525 0.79168761 -0.073210821
0.27738976 0.79165792 0.043962203
0.52739829 0.64573324 -0.10237025
0.52739829 0.64573324 -0.10237025
0.53636271 0.63830668 -0.10237025
0.6085149 0.57887363 -0.014660021
0.60450047 0.55179137 -0.18895888
0.62051117 0.5430252 -0.16027956
0.64902675 -0.51681429 -0.13140495
0.59057039 -0.58851248 -0.10237025
-0.66342103 -0.46712556 0.217408
-0.75969267 -0.35086641 0.073210821
-0.83626276 -0.030079771 0.073210821
-0.83353716 -0.018333396 0.10237025
-0.26955158 0.79544139 -0.014660021
-0.2222746 0.79932892 -0.13140495
-0.20649663 0.80776203 0.10237025
-0.1943838 0.80656534 -0.13140495
-0.18874821 0.80790275 0.13140495
-0.18169904 0.8042984 0.16027956
-0.17505695 0.79953086 -0.18895888
-0.17636077 0.80548579 0.16027956
-0.17178738 0.81167841 -0.13140495
-0.1581343 0.80304927 -0.18895888
-0.15380153 0.81009603 0.16027956
-0.14905702 0.81615853 0.13140495
-0.14261758 0.81213957 -0.16027956
-0.14033638 0.79914922 -0.217408
-0.14261758 0.81213957 0.16027956
-0.12464974 0.80892336 -0.18895888
-0.1189994 0.80977386 0.18895888
-0.12062596 0.82084233 0.13140495
-0.11418744 0.81662214 -0.16027956
-0.11236098 0.80356008 -0.217408
-0.11334326 0.8105849 -0.18895888
-0.11236098 0.80356008 0.217408
-0.10306006 0.81810093 0.16027956
-0.096626498 0.81274712 -0.18895888
-0.091627546 0.81946009 -0.16027956
-0.078894712 0.80753291 0.217408
-0.034097906 0.82386154 -0.16027956
-0.033552501 0.81068367 0.217408
-0.02863314 0.82406956 -0.16027956
-0.016850632 0.8112027 0.217408
-0.0056126053 0.82454771 -0.16027956
0.064506978 0.8088094 0.217408
0.18655778 0.81259865 -0.10237025
0.19128539 0.80730581 0.13140495
0.24413534 0.80253679 0.043962203
0.24413534 0.80253679 -0.043962203
0.24413534 0.80253679 -0.043962203
0.26630947 0.79545373 0.043962203
0.63434345 -0.53473467 -0.13140495
-0.19319092 0.80161572 0.16027956
-0.19319092 0.80161572 0.16027956
-0.14349818 0.81715423 -0.13140495
0.037061546 0.82569873 -0.16066118
0.11049246 0.81294507 -0.18940879
0.20401925 0.81043845 0.10261399
-0.68055874 -0.45817909 0.18940879
-0.27589202 0.79538143 -0.014694926
-0.15511966 0.81703871 -0.13171782
0.013910352 0.81319058 -0.21792564
0.014136469 0.82640916 -0.16066118
0.019303292 0.81308043 0.21792564
0.025121029 0.81292146 0.21792564
0.059140611 0.81115645 -0.21792564
0.059140611 0.81115645 0.21792564
0.092915423 0.80798459 0.21792564
0.12091671 0.8042708 0.21792564
0.12091671 0.8042708 0.21792564
0.16237974 0.8104226 0.16066118
0.16534582 0.79632479 -0.21792564
0.16534582 0.79632479 -0.21792564
0.17799066 0.8008793 0.18940879
0.18608671 0.81054682 -0.13171782
0.18357748 0.79961717 0.18940879
0.20302072 0.80647194 -0.13171782
0.20583253 0.79417962 0.18940879
0.21412079 0.80359608 -0.13171782
0.22393715 0.79561555 -0.16066118
0.2376381 0.8012256 -0.10261399
0.24971637 0.80076236 -0.073385134
0.25592461 0.80095237 -0.044066876
0.26137054 0.79919183 -0.044066876
0.26629269 0.79540354 -0.073385134
0.26694354 0.79734766 0.044066876
0.27236468 0.79551214 0.044066876
0.27269691 0.79648256 -0.014694926
0.27838939 0.79451078 0.014694926
0.2773723 0.79160798 -0.073385134
0.27838939 0.79451078 -0.014694926
0.61155611 0.57408857 0.073385134
0.63506001 0.54797572 0.073385134
0.63506001 0.54797572 -0.073385134
-0.68562758 -0.4615916 0.16066118
-0.7861883 -0.29238081 -0.073385134
-0.83109611 -0.029893931 0.13171782
-0.25899816 0.79996377 0.044066876
-0.25251004 0.79988581 -0.073385134
-0.2292348 0.80367017 -0.10261399
-0.21587187 0.79784167 -0.16066118
-0.19750476 0.79629153 0.18940879
-0.18919761 0.80982631 -0.13171782
-0.18325625 0.81119144 -0.13171782
-0.17787224 0.81238902 -0.13171782
-0.17113969 0.80861807 0.16066118
-0.1721964 0.81361097 0.13171782
-0.15302797 0.80602157 0.18940879
-0.12947237 0.80293792 -0.21792564
-0.13157697 0.81598985 -0.16066118
-0.11824898 0.80466735 -0.21792564
-0.073429607 0.80998796 -0.21792564
-0.074623227 0.82315451 -0.16066118
-0.052504227 0.83920521 0.044066876
-0.040190183 0.83066189 -0.13171782
-0.039943546 0.82556432 -0.16066118
-0.034686316 0.83807844 0.073385134
0.0023423571 0.83879268 0.073385134
0.041856542 0.81223178 0.21792564
0.070177525 0.81027621 0.21792564
0.075973891 0.8097533 -0.21792564
0.082951978 0.82235694 -0.16066118
0.087272413 0.8086136 0.21792564
0.11529894 0.80509537 0.21792564
0.14138566 0.82367742 0.10261399
0.14318639 0.80060607 0.21792564
0.14877215 0.79958695 -0.21792564
0.15978244 0.79745972 -0.21792564
0.16990265 0.81827104 0.10261399
0.19339217 0.81619734 0.073385134
0.19174083 0.80922794 -0.13171782
0.21123353 0.79276019 -0.18940879
0.23502384 0.79241139 0.16066118
0.26726916 0.79832029 0.014694926
0.28392932 0.79254794 0.014694926
0.83044696 -0.13822427 -0.014694926
-0.66179806 -0.47275341 0.21792564
-0.66500062 -0.46823776 0.21792564
-0.6682533 -0.4635838 0.21792564
-0.83086717 -0.035695303 0.13171782
-0.19897577 0.80222231 0.16066118
-0.18803656 0.80485666 -0.16066118
-0.1627042 0.79686874 -0.21792564
-0.1627042 0.79686874 -0.21792564
-0.14295715 0.81407326 -0.16066118
-0.096017167 0.8076219 0.21792564
-0.092412814 0.82648307 0.13171782
-0.084731646 0.80888379 -0.21792564
-0.084731646 0.80888379 0.21792564
-0.063512675 0.8292048 0.13171782
-0.063512675 0.8292048 0.13171782
-0.050784789 0.81172246 0.21792564
-0.050784789 0.81172246 -0.21792564
-0.051610306 0.8249172 -0.16066118
-0.83143252 -0.018287104 0.13171782
-0.10165305 0.80693191 0.21792564
0.24112153 0.79262954 0.16104279
0.031564262 0.83301115 0.1320307
0.04263797 0.82739544 -0.16104279
0.043270722 0.83967412 0.073559448
0.1379205 0.80349016 -0.21844327
0.14016242 0.81655109 -0.16104279
0.16377045 0.8173635 -0.1320307
0.19101681 0.80617231 -0.16104279
0.21094278 0.81389689 0.073559448
0.21875654 0.79909122 -0.16104279
0.22118984 0.80797976 0.10285772
0.21875654 0.79909122 -0.16104279
0.24939276 0.79972464 -0.10285772
0.25122738 0.80560774 0.014729831
0.26199138 0.80109012 0.044171546
0.28460371 0.79443043 -0.014729831
0.28965127 0.79150933 -0.044171546
0.29000461 0.79247481 -0.014729831
0.61141258 0.58163017 -0.014729831
0.61525661 0.57756239 0.014729831
0.63890272 0.55129147 0.014729831
0.71633667 -0.41624868 -0.16104279
0.70718819 -0.45855176 -0.044171546
0.59853524 -0.58022362 -0.1320307
-0.66984057 -0.46468496 0.21844327
-0.27083516 0.7992292 0.014729831
-0.26524892 0.80110049 0.014729831
-0.2345248 0.79993874 -0.1320307
-0.21079618 0.80122793 0.16104279
-0.18848321 0.80676842 0.16104279
-0.18848321 0.80676842 0.16104279
-0.17829473 0.81431866 0.1320307
-0.17829473 0.81431866 -0.1320307
-0.17260543 0.81554353 0.1320307
-0.1554881 0.81897944 0.1320307
-0.14418152 0.8210454 -0.1320307
-0.13830259 0.82205611 0.1320307
-0.13830259 0.82205611 0.1320307
-0.13525526 0.8039431 0.21844327
-0.12415791 0.80573153 -0.21844327
-0.12120037 0.82475108 0.1320307
-0.10355082 0.82199663 -0.16104279
-0.090591282 0.81019241 0.21844327
-0.090591282 0.81019241 0.21844327
-0.086846471 0.82907271 0.1320307
-0.016930873 0.81506556 0.21844327
0.0082524745 0.81519961 0.21844327
0.019955479 0.8405515 0.073559448
0.089450642 0.82879579 0.1320307
0.1008693 0.82748371 0.1320307
0.11323568 0.83312827 -0.073559448
0.10979507 0.80781406 0.21844327
0.11817669 0.82518977 0.1320307
0.11557281 0.80700773 -0.21844327
0.12968662 0.82345933 0.1320307
0.12968662 0.82345933 0.1320307
0.12682913 0.80531543 0.21844327
0.13230775 0.80443347 0.21844327
0.14352651 0.80250776 -0.21844327
0.14352651 0.80250776 -0.21844327
0.17280467 0.80400759 -0.18985869
0.18174161 0.81775683 0.10285772
0.17974228 0.80876076 0.16104279
0.18813519 0.81946945 -0.073559448
0.18796146 0.79327738 -0.21844327
0.20225412 0.80342674 0.16104279
0.20785812 0.80199516 0.16104279
0.21017019 0.81091601 0.10285772
0.23003119 0.79591888 0.16104279
0.23003119 0.79591888 0.16104279
0.25092131 0.80462623 -0.044171546
0.2613526 0.79913694 -0.073559448
0.26039541 0.79621011 -0.10285772
0.27234599 0.79545754 -0.073559448
0.27301162 0.79740173 0.044171546
0.2878868 0.78668767 -0.10285772
0.59176165 0.57105851 -0.18985869
0.59583288 0.56680936 -0.18985869
0.61701119 0.57115865 0.073559448
0.62883735 0.55811167 0.073559448
0.71045512 -0.42620972 -0.16104279
-0.76331025 -0.35253718 0.073559448
-0.78805578 -0.29307529 -0.073559448
-0.82772982 -0.035560515 0.16104279
-0.28210655 0.79532063 0.014729831
-0.28210655 0.79532063 0.014729831
-0.26492575 0.80012453 0.044171546
-0.25372845 0.80374545 0.044171546
-0.24687913 0.80050421 -0.10285772
-0.2286547 0.8016364 0.1320307
-0.20923777 0.79530448 0.18985869
-0.20519747 0.80268002 0.16104279
-0.20368046 0.79674584 0.18985869
-0.20067991 0.809093 0.1320307
-0.18121459 0.80215394 0.18985869
-0.17027795 0.80454654 0.18985869
-0.16451643 0.80574441 -0.18985869
-0.1497668 0.82004499 0.1320307
-0.14223734 0.80997419 -0.18985869
-0.12977991 0.80484515 0.21844327
-0.097086623 0.81661731 -0.18985869
-0.092063867 0.82336229 -0.16104279
0.054071907 0.82058877 -0.18985869
0.18960464 0.80021232 -0.18985869
0.19955844 0.8167628 0.073559448
0.19882755 0.81377143 -0.10285772
0.22833058 0.79003471 0.18985869
0.25653249 0.8028549 0.044171546
0.25653249 0.8028549 0.044171546
0.26231095 0.80206734 -0.014729831
0.28356391 0.79152799 -0.073559448
-0.15206212 0.80093426 0.21844327
-0.045365937 0.8139782 -0.21844327
-0.0057230205 0.84076887 0.073559448
0.20123459 0.79937679 -0.19030859
-0.21529387 0.79570544 0.19030859
0.0023190693 0.83045334 -0.16142441
0.1462052 0.81748527 -0.16142441
0.16758364 0.80710244 0.19030859
0.18128067 0.81568283 -0.13234356
0.18285108 0.79645312 0.21896091
0.21066822 0.8128376 0.10310146
0.22834003 0.81125838 0.073733762
0.22750375 0.80828714 -0.10310146
0.22889812 0.81324118 -0.044276219
0.23759842 0.80109185 -0.13234356
0.23876701 0.8050319 -0.10310146
0.24438134 0.80334538 0.10310146
0.24438134 0.80334538 -0.10310146
0.25557396 0.79985499 -0.10310146
0.25557396 0.79985499 0.10310146
-0.83966577 -0.0068879728 0.10310146
-0.26587749 0.80299884 -0.014764735
-0.23032381 0.80748808 -0.10310146
-0.22496331 0.80899787 -0.10310146
-0.22248851 0.80009812 0.16142441
-0.16490628 0.80765373 -0.19030859
-0.16490628 0.80765373 0.19030859
-0.15375495 0.80985063 -0.19030859
-0.15490012 0.81588238 -0.16142441
-0.12074204 0.82163221 -0.16142441
-0.10873598 0.81711388 -0.19030859
-0.10213596 0.81076527 -0.21896091
-0.056718569 0.81520247 0.21896091
0.0022819752 0.81717008 0.21896091
0.013976435 0.81705374 0.21896091
0.019394994 0.81694305 0.21896091
0.030941932 0.81658721 0.21896091
0.042055387 0.81609035 0.21896091
0.054603722 0.82865953 -0.16142441
0.089112379 0.82566166 -0.16142441
0.1045411 0.81045866 0.21896091
0.13824733 0.80539417 0.21896091
0.13824733 0.80539417 0.21896091
0.17171302 0.7989285 -0.21896091
0.17728637 0.79771024 -0.21896091
0.1801682 0.81067723 -0.16142441
0.19929871 0.81569976 -0.10310146
0.19949062 0.79244912 -0.21896091
0.21381775 0.80245882 -0.16142441
0.21765383 0.7950632 0.19030859
0.22140203 0.7866087 -0.21896091
0.23314106 0.80667919 0.10310146
0.24023044 0.80996603 -0.044276219
0.2454059 0.78694004 0.19030859
0.27399239 0.80026633 -0.014764735
0.27971193 0.79828519 0.014764735
0.65184903 0.53906482 0.014764735
0.83439207 -0.13888092 -0.014764735
0.83340216 -0.14470264 -0.014764735
0.72571611 -0.42850375 -0.073733762
0.71973908 -0.43846893 -0.073733762
0.61756986 -0.53514445 -0.21896091
-0.79293901 -0.27628577 -0.10310146
-0.27720267 0.79916 0.014764735
-0.21931 0.81054872 0.10310146
-0.21129569 0.80312657 -0.16142441
-0.2041631 0.79863387 -0.19030859
-0.20568371 0.80458212 0.16142441
-0.2041631 0.79863387 -0.19030859
-0.19457085 0.80734152 -0.16142441
-0.15242246 0.80283219 -0.21896091
-0.14681396 0.8038767 -0.21896091
-0.14452317 0.82299101 0.13234356
-0.11881074 0.80849004 0.21896091
-0.11881074 0.80849004 0.21896091
-0.10954585 0.82319975 -0.16142441
-0.10443711 0.829032 0.13234356
-0.039491359 0.81621844 0.21896091
-0.033792164 0.81647426 -0.21896091
-0.028376399 0.81668043 -0.21896091
-0.02926562 0.84227246 0.073733762
-0.022531679 0.81686258 0.21896091
0.014203626 0.83033514 -0.16142441
0.076334812 0.81360012 0.21896091
0.11584668 0.80892009 -0.21896091
0.14386661 0.80440944 0.21896091
0.19146946 0.8080827 -0.16142441
0.19146946 0.8080827 0.16142441
0.20501806 0.79103714 -0.21896091
0.23199999 0.8027311 -0.13234356
0.2416929 0.79450786 -0.16142441
0.2416929 0.79450786 0.16142441
0.27937114 0.79731262 -0.044276219
