# .PCD v0.7 - Point Cloud Data file format
VERSION 0.7
FIELDS x y z rgb
SIZE 4 4 4 4
TYPE F F F F
COUNT 1 1 1 1
WIDTH 994
HEIGHT 1
VIEWPOINT 0 0 0 1 0 0 0
POINTS 994
DATA ascii
0.27850989 0.79485464 0.16371411 1.0410165e-38
0.28201294 0.80485219 -0.044694908 8.1978188e-39
0.27387324 0.78162187 0.19120839 1.0871143e-38
0.27838939 0.79451078 -0.014694926 9.9491715e-39
0.28258047 0.78878284 0.014625116 1.6773824e-38
0.28589559 0.79803652 -0.19570741 1.9082691e-38
0.28695136 0.80098355 0.044590235 1.8346211e-38
0.29001132 0.80952501 -0.16714868 1.8898662e-38
0.28759563 0.80278194 0.074605316 1.862387e-38
0.28713852 0.80150598 -0.13484651 1.8713907e-38
0.28788128 0.80357933 0.10480764 1.8991934e-38
0.28721181 0.80171055 -0.1045639 1.8530234e-38
0.29113582 0.81266385 0.13672373 2.0187959e-38
0.28356391 0.79152799 -0.073559448 1.8991212e-38
0.28627777 0.79910332 -0.044485562 1.8437681e-38
0.28460371 0.79443043 -0.014729831 1.807106e-38
0.28392932 0.79254794 0.014694926 1.9449674e-38
0.28523836 0.79620194 -0.19525751 1.8898299e-38
0.28964573 0.80850452 0.045008924 1.852988e-38
0.28868708 0.80582857 -0.16638544 1.8899017e-38
0.29633102 0.82716548 0.076871365 1.8714271e-38
0.28713852 0.80150598 -0.13484651 1.8713907e-38
0.28988975 0.80918568 -0.10553885 1.8254735e-38
0.2808761 0.78402531 -0.0728622 9.8576919e-39
0.28560418 0.79722303 -0.044380892 1.8070341e-38
0.28595257 0.79819554 -0.014799641 1.8162892e-38
0.28725573 0.78496325 0.014590212 1.8162892e-38
0.28596336 0.78143162 -0.1921082 1.8898298e-38
0.29214138 0.7983138 -0.16524059 1.8898659e-38
0.29122981 0.79582286 -0.13422076 1.8530956e-38
0.29266217 0.79973698 -0.1045639 1.8622072e-38
0.29373798 0.8026768 -0.07477963 1.8254372e-38
0.28965127 0.79150933 -0.044171546 1.8346565e-38
0.29000461 0.79247481 -0.014729831 1.8165082e-38
0.29550233 0.80749804 0.01500907 1.8529517e-38
0.29132101 0.79607201 -0.19570741 2.0373429e-38
0.29416546 0.80384487 -0.16638544 1.9820618e-38
0.29122981 0.79582286 -0.13422076 1.8530956e-38
0.2878868 0.78668767 -0.10285772 1.8530959e-38
0.2978462 0.81390303 -0.075825498 9.1855114e-41
0.29632729 0.7921418 -0.19525751 5.5317658e-40
0.29440713 0.78700888 -0.16333251 1.98199e-38
0.29899344 0.79926896 -0.13515937 1.3921177e-38
0.29359615 0.78484094 -0.1934579 1.9359995e-38
-0.42176741 0.95132399 0.24024773 2.194256e-38
-0.33946392 0.76568305 0.13265643 1.1977126e-38
-0.40123191 0.9050048 0.22855027 2.194256e-38
-0.40464631 0.93017876 0.12455047 2.0685832e-38
-0.3545981 0.81513071 0.14079101 3.4955769e-39
-0.33910832 0.77952361 0.16524059 1.1609431e-38
-0.36691874 0.84345275 0.2123538 2.1850361e-38
-0.37221587 0.85562944 0.25001919 2.194256e-38
-0.39278534 0.90291351 0.051603254 7.0990747e-39
-0.36980397 0.85008508 0.11382597 2.1975444e-38
-0.39118448 0.89923352 -0.12040691 7.3793218e-40
-0.36563003 0.84049034 0.14517118 3.6814129e-39
-0.34224096 0.78672481 0.16676706 1.1423964e-38
-0.33143753 0.76189047 -0.043543514 1.0963679e-38
-0.37158296 0.85417461 0.2150532 2.1758169e-38
-0.37838092 0.86980134 0.25416031 2.194256e-38
-0.34727633 0.81378436 0.046369657 7.8351838e-39
-0.38318399 0.897928 0.085412629 2.0499668e-38
-0.38533935 0.90297872 -0.15549585 8.3012781e-40
-0.36853513 0.86360085 0.1152884 2.1975441e-38
-0.38489717 0.90194255 -0.12040691 8.3084808e-40
-0.35355079 0.82848752 0.14266823 3.2207976e-39
-0.36139861 0.84687757 0.17897883 3.6846442e-39
-0.35433161 0.83031726 -0.047311705 1.1077923e-39
-0.36182773 0.84788311 -0.016091119 1.5669768e-39
-0.34424424 0.80667919 0.23500769 2.194256e-38
-0.36967647 0.86627537 0.016440166 1.5687789e-39
-0.35197985 0.82480627 0.046997689 1.3460929e-38
-0.37989235 0.89021456 -0.18813767 8.9418831e-39
-0.37067187 0.86860794 0.082623646 2.0592564e-38
-0.35432613 0.83030438 -0.1429811 1.1989103e-39
-0.36152285 0.84716868 0.11309475 2.1975074e-38
-0.35684797 0.83621395 -0.11163232 1.0145191e-39
-0.35510147 0.83212125 0.14329398 3.4966559e-39
-0.35424969 0.83012527 -0.078963101 1.0145191e-39
-0.36373866 0.85236108 -0.048567768 1.2003523e-39
-0.34113467 0.7993924 0.20065634 1.19793e-38
-0.37124622 0.86995381 -0.016509976 1.6606144e-39
-0.35106847 0.82267058 0.23966643 2.194256e-38
-0.36023313 0.86074299 -0.25001919 1.8158187e-38
-0.35898766 0.85776711 0.016230738 1.6606144e-39
-0.38520032 0.92039973 -0.23034988 1.7144398e-38
-0.36078316 0.86205727 -0.18165016 7.7440672e-39
-0.34459975 0.82338858 0.078091547 1.2070409e-38
-0.34928355 0.83458006 -0.14329398 2.1201464e-39
-0.35559973 0.84967196 -0.11309475 1.0145191e-39
-0.34690735 0.8289023 -0.078614481 1.1067147e-39
-0.33880267 0.80953699 0.17058325 1.1516515e-38
-0.35006848 0.83645552 -0.047521047 1.1981943e-39
-0.33855495 0.80894506 0.20245595 1.1794909e-38
-0.34895146 0.83378655 -0.015776975 1.6598885e-39
-0.33785838 0.80728072 0.23449005 2.1942557e-38
-0.35128322 0.83935809 -0.24380754 1.8435136e-38
-0.36563936 0.87366068 -0.21865243 1.7422066e-38
-0.33464694 0.79960728 0.045427609 1.1239912e-38
-0.34486625 0.82402533 -0.17363618 1.1059958e-39
-0.3384462 0.80868518 0.076697052 1.0871132e-38
-0.34775829 0.8309356 -0.14266823 1.3829485e-39
-0.34333768 0.82037294 0.10919493 1.0778586e-38
-0.34394515 0.82182443 0.14110389 1.0963337e-38
-0.34306136 0.8197127 -0.077742919 5.5282065e-40
-0.33198115 0.79323757 0.16714868 1.1424317e-38
-0.340812 0.81433803 0.20380566 1.1978944e-38
-0.33785838 0.80728072 0.23449005 2.1942557e-38
-0.33808124 0.82391763 -0.23863116 1.806743e-38
-0.32869881 0.80105221 0.015113784 1.1422505e-38
-0.3320893 0.80931503 0.045846298 1.1055523e-38
-0.33537868 0.81733137 -0.17172809 1.1975668e-38
-0.34186846 0.83314723 0.078788795 1.1148079e-38
-0.33669963 0.82055056 -0.14047815 1.3082381e-38
-0.33534133 0.81724036 0.10846371 1.1055886e-38
-0.33760208 0.82274985 -0.10919493 1.2990185e-38
-0.33744952 0.8223781 0.14079101 1.1239924e-38
-0.33127961 0.80734175 -0.076348431 1.1515052e-38
-0.32867113 0.80098474 0.16829354 1.1700907e-38
-0.3320893 0.80931503 -0.045846298 1.123991e-38
-0.33585835 0.81850034 0.20425555 1.1702713e-38
-0.33173528 0.80845225 -0.015253403 1.1331383e-38
-0.3351478 0.81676865 0.23656061 2.1666692e-38
-0.33441442 0.8149814 -0.23604298 1.8251824e-38
-0.32869881 0.80105221 0.015113784 1.1422505e-38
-0.32920036 0.80227458 -0.20020644 1.2345535e-38
-0.32981473 0.80377179 0.045532282 1.1146637e-38
-0.33463341 0.8155151 -0.17134647 1.2253691e-38
-0.34035575 0.82946074 0.078440167 1.133211e-38
-0.33070052 0.8059305 -0.1379752 1.1791642e-38
-0.33081988 0.80622137 0.10700128 1.1055533e-38
-0.33157346 0.8080579 -0.10724502 1.1514336e-38
-0.33819941 0.82420558 0.14110389 1.1239207e-38
-0.32901058 0.80181205 -0.075825498 1.1515774e-38
-0.32494467 0.79190332 0.16638544 1.1056613e-38
-0.33284751 0.81116277 -0.045950968 1.1607973e-38
-0.3284606 0.80047172 0.19975653 1.1702349e-38
-0.33097616 0.80660224 -0.015218498 1.1331383e-38
-0.33588114 0.81855589 0.23707825 2.1850364e-38
-0.3252534 0.80827785 -0.23345478 1.7146196e-38
-0.32547817 0.8088364 0.015218498 1.0963323e-38
-0.32300439 0.8026889 -0.19975653 1.1607604e-38
-0.32135361 0.79858661 0.045113593 1.0871129e-38
-0.3232114 0.8032034 -0.16829354 1.1976749e-38
-0.33618954 0.83545494 0.078788795 1.0963328e-38
-0.32594454 0.80999541 -0.13828807 1.1332106e-38
-0.3305119 0.82134557 0.10870746 1.0872221e-38
-0.32532448 0.80845451 -0.10700128 1.1515774e-38
-0.32963172 0.81915826 0.1398524 1.1331757e-38
-0.32652035 0.81142634 -0.076522745 1.09626e-38
-0.32614303 0.81048864 0.16982001 1.1056613e-38
-0.32582721 0.80970383 -0.045741625 1.123919e-38
-0.32445937 0.80630463 0.20065634 1.1977862e-38
-0.32099912 0.79770565 -0.01500907 1.0871129e-38
-0.32813814 0.81544662 0.23552532 8.3081066e-39
-0.32597458 0.81007004 -0.23397242 1.7146196e-38
-0.32473165 0.80698127 0.015183593 1.0963323e-38
-0.32373187 0.80449677 -0.20020644 1.1515052e-38
-0.32508162 0.80785096 0.045636956 1.0779652e-38
-0.32027978 0.79591811 -0.16676706 1.1515771e-38
-0.3250328 0.80772966 0.076174118 1.0963688e-38
-0.32889426 0.81732571 -0.13953954 1.1607967e-38
-0.3282887 0.81582087 0.10797624 1.1148085e-38
-0.32310131 0.80292976 -0.10627007 1.1146276e-38
-0.32594454 0.80999541 0.13828807 1.1055533e-38
-0.32205766 0.80033624 -0.07547687 1.1239187e-38
-0.3217456 0.79956073 0.1675303 1.1055534e-38
-0.32731843 0.81340957 -0.045950968 1.1145921e-38
-0.32227689 0.80088103 0.19930664 1.1886024e-38
-0.3202526 0.79585052 -0.014974165 1.0778932e-38
-0.32741696 0.81365442 0.23500769 6.0936052e-39
-0.31336343 0.79429954 -0.22879604 8.6653018e-39
-0.31556189 0.7998721 0.01500907 1.0778212e-38
-0.31967872 0.8103072 -0.20110624 1.160797e-38
-0.31810933 0.80632919 0.045427609 1.0594545e-38
-0.32422116 0.82182121 -0.17172809 1.2160422e-38
-0.32245201 0.81733686 0.076871365 1.0871132e-38
-0.31752381 0.80484509 -0.13703659 1.1239184e-38
-0.32564205 0.82542282 0.1089512 1.0962972e-38
-0.32199952 0.81618994 -0.1077325 1.1330667e-38
-0.32404828 0.821383 0.1398524 1.1055533e-38
-0.31514016 0.79880309 -0.07512825 1.0870405e-38
-0.31413427 0.79625344 0.16638544 1.1700904e-38
-0.32470605 0.82305032 -0.046369657 1.1054793e-38
-0.32039389 0.81212002 0.20155615 1.2070415e-38
-0.31629577 0.8017323 -0.015043974 1.1054799e-38
-0.32258001 0.81766129 0.23552532 2.9557028e-39
-0.31761724 0.80508184 -0.23190187 1.7883758e-38
-0.31776351 0.80545264 0.015113784 1.041087e-38
-0.31681806 0.80305618 -0.19930664 1.179344e-38
-0.31884229 0.80818713 0.045532282 1.1055523e-38
-0.31845722 0.80721104 -0.16867515 1.1608323e-38
-0.32391438 0.82104355 0.077219985 1.0871132e-38
-0.32042357 0.81219524 -0.13828807 1.123954e-38
-0.32127103 0.81434333 0.10748876 1.1147366e-38
-0.32491356 0.82357627 -0.10870746 1.1423581e-38
-0.32549816 0.8250581 0.14047815 1.0963337e-38
-0.31514016 0.79880309 -0.07512825 1.0870405e-38
-0.31125233 0.78894836 0.16485897 1.1148809e-38
-0.31810933 0.80632919 -0.045427609 1.1423581e-38
-0.32110906 0.81393278 0.20200604 1.2069333e-38
-0.31849736 0.80731279 -0.015148689 1.09626e-38
-0.31903517 0.808676 0.23293714 1.9437145e-39
-0.31324029 0.81093824 -0.23293714 1.8067081e-38
-0.31127119 0.80584049 0.015078879 1.0319395e-38
-0.30965909 0.80166698 -0.19840683 1.1515774e-38
-0.30945262 0.8011325 0.045008924 1.0686741e-38
-0.31903949 0.82595158 -0.17210971 1.1607248e-38
-0.31874877 0.82519895 0.077394299 1.0963325e-38
-0.31175637 0.8070966 -0.13703659 1.1239187e-38
-0.31257445 0.80921447 0.10651381 1.1053728e-38
-0.3111439 0.80551094 -0.10602633 1.142286e-38
-0.31745055 0.82183808 0.13953954 1.0963693e-38
-0.31085184 0.80475485 -0.07547687 1.0870402e-38
-0.31267285 0.80946922 0.16867515 1.1332124e-38
-0.31305093 0.81044799 -0.045532282 1.1331383e-38
-0.31176561 0.8071205 0.19975653 1.1331768e-38
-0.30910957 0.80024439 -0.014974165 1.0962603e-38
-0.31324029 0.81093824 0.23293714 2.5833189e-39
-0.3125442 0.80913615 -0.23241951 7.5589542e-39
-0.31631494 0.81889808 0.015323213 1.041087e-38
-0.31106344 0.80530268 -0.19930664 1.1423576e-38
-0.30945262 0.8011325 0.045008924 1.0686741e-38
-0.31125805 0.80580646 -0.16791192 1.1515771e-38
-0.32449198 0.84006745 0.078788795 1.0963328e-38
-0.31531525 0.81631005 -0.13860093 1.1607604e-38
-0.31615081 0.81847322 0.1077325 1.0779299e-38
-0.30899808 0.79995573 -0.10529511 1.1331383e-38
-0.31460348 0.81446737 0.13828807 1.1330681e-38
-0.31228763 0.80847198 -0.075825498 1.0778209e-38
-0.3070136 0.79481816 0.1656222 1.0872585e-38
-0.31161159 0.80672181 -0.04532294 1.1423578e-38
-0.31176561 0.8071205 0.19975653 1.1331768e-38
-0.30550689 0.79091752 -0.014799641 1.0871128e-38
-0.31532854 0.8163445 0.23449005 1.8475518e-39
-0.30566177 0.80763125 -0.23138423 8.3084808e-40
-0.30861011 0.81542146 0.015218498 1.0778934e-38
-0.3041952 0.80375618 -0.19840683 1.1330661e-38
-0.30116454 0.79574847 0.044590235 1.1238833e-38
-0.3022913 0.79872566 -0.16600382 1.1146992e-38
-0.31030354 0.81989592 0.076697052 1.077858e-38
-0.30625546 0.80919993 -0.13703659 1.1054077e-38
-0.31057236 0.82060617 0.1077325 1.1607265e-38
-0.30635643 0.80946672 -0.10627007 1.1239187e-38
-0.30975154 0.8184374 0.13860093 1.1147369e-38
-0.30184072 0.79753512 -0.074605316 1.1239187e-38
-0.30576593 0.80790645 0.16791192 1.0963339e-38
-0.30964804 0.81816393 -0.045846298 1.1054796e-38
-0.30281562 0.80011106 0.19750702 1.170163e-38
-0.30294755 0.80045962 -0.01493926 1.0687455e-38
-0.30566177 0.80763125 0.23138423 5.6051939e-45
-0.30497795 0.80582446 -0.23086658 8.3012781e-40
-0.30011627 0.7929787 0.014799641 1.0778209e-38
-0.3083339 0.81469166 -0.20110624 1.1239184e-38
-0.30540627 0.80695617 0.045218267 1.142395e-38
-0.30368114 0.80239797 -0.16676706 1.1791639e-38
-0.31100878 0.82175928 0.076871365 1.077858e-38
-0.30695468 0.81104743 -0.13734946 1.1146273e-38
-0.31338295 0.82803249 0.10870746 1.0780378e-38
-0.30565378 0.80761015 -0.10602633 1.142286e-38
-0.31184918 0.82397985 0.13953954 1.1424671e-38
-0.30113548 0.7956717 -0.074431002 1.1239187e-38
-0.30159637 0.79688954 0.1656222 1.1515794e-38
-0.30894107 0.81629598 -0.045741625 1.0871128e-38
-0.30557474 0.80740136 0.19930664 1.1700551e-38
-0.30294755 0.80045962 -0.01493926 1.0687455e-38
-0.30908081 0.81666517 0.23397242 1.6617186e-39
-0.29867369 0.80612242 -0.23034894 5.5426119e-40
-0.29874143 0.80630535 0.01500907 1.0778934e-38
-0.29586837 0.7985509 -0.19660722 1.1516127e-38
-0.29837745 0.80532295 0.045008924 1.0962249e-38
-0.29943618 0.80818039 -0.1675303 1.1424652e-38
-0.30734089 0.82951534 0.077394299 1.0686741e-38
-0.29716727 0.80205667 -0.13547225 1.1422497e-38
-0.30138755 0.81344718 0.10651381 1.077858e-38
-0.30345657 0.81903154 -0.10724502 1.133138e-38
-0.30540287 0.82428455 0.13922668 1.1147369e-38
-0.29418892 0.79401803 -0.074082382 1.0869686e-38
-0.29602572 0.79897565 0.1656222 1.1425396e-38
-0.30045918 0.81094152 -0.04532294 1.0963323e-38
-0.30331585 0.81865168 0.20155615 1.1609437e-38
-0.29735196 0.80255508 -0.01493926 1.0594897e-38
-0.30001605 0.80974549 0.23138423 1.2611686e-44
-0.29800251 0.80431092 -0.22983131 6.4537221e-40
-0.2966572 0.80067992 0.014904355 1.0503065e-38
-0.29519132 0.79672354 -0.19615732 1.1607967e-38
-0.29768357 0.80345011 0.044904251 1.0962249e-38
-0.30011827 0.81002134 -0.16791192 1.1238466e-38
-0.30318764 0.81830567 0.076348431 1.0779299e-38
-0.30059877 0.81131828 -0.13703659 1.1329945e-38
-0.29931852 0.80786288 0.10578259 1.1055886e-38
-0.30069786 0.81158578 -0.10627007 1.1515055e-38
-0.30608916 0.82613689 0.13953954 1.1147369e-38
-0.29903439 0.807096 -0.075302564 1.1331383e-38
-0.29466155 0.79529369 0.16485897 1.1424317e-38
-0.29907137 0.80719578 -0.045113593 1.0870407e-38
-0.29722247 0.80220556 0.19750702 1.1700907e-38
-0.30082569 0.81193072 -0.015113784 1.0870407e-38
-0.30605662 0.82604909 0.23604298 1.3851317e-39
-0.29158118 0.8046065 -0.22931367 1.6961085e-38
-0.29432666 0.81218255 0.015078879 1.0503065e-38
-0.29213837 0.80614406 -0.19795693 1.1422857e-38
-0.28920469 0.79804868 0.044485562 1.0963688e-38
-0.29698983 0.81953138 -0.16943839 1.1515771e-38
-0.30071837 0.82982016 0.077219985 1.0871495e-38
-0.29343939 0.80973417 -0.13641085 1.1331383e-38
-0.29420629 0.81185037 0.10602633 1.1146284e-38
-0.29150096 0.80438513 -0.10505138 1.0870405e-38
-0.29747754 0.82087725 0.13828807 1.1147369e-38
-0.29800308 0.82232744 -0.076522745 1.0870405e-38
-0.29364532 0.81030244 0.1675303 1.1241e-38
-0.29532903 0.8149485 -0.045427609 1.1055519e-38
-0.29280233 0.80797619 0.19840683 1.1424317e-38
-0.2902388 0.80090219 -0.014869451 1.0686016e-38
-0.30079594 0.83003426 0.23656061 1.2007348e-39
-0.2896066 0.79915774 -0.22776076 1.7330587e-38
-0.29364535 0.81030244 0.015043974 1.0594542e-38
-0.28881863 0.7969833 -0.19570741 1.1607967e-38
-0.29192662 0.80555969 0.044904251 1.0871492e-38
-0.29163864 0.80476505 -0.16638544 1.133138e-38
-0.30003956 0.82794702 0.077045679 1.0870779e-38
-0.29680452 0.81902009 -0.1379752 1.1422141e-38
-0.29826432 0.82304835 0.10748876 1.0778936e-38
-0.29420629 0.81185037 -0.10602633 1.1606885e-38
-0.29545847 0.81530571 0.13734946 1.1239564e-38
-0.2925725 0.80734199 -0.07512825 1.0778212e-38
-0.29297644 0.80845666 0.16714868 1.1241e-38
-0.29532903 0.8149485 -0.045427609 1.1055519e-38
-0.29147443 0.80431187 0.19750702 1.1516511e-38
-0.28478831 0.78586179 -0.014590212 1.0502349e-38
-0.29487219 0.81368786 0.23190187 7.0064923e-45
-0.28480607 0.80293119 -0.2282784 1.7514256e-38
-0.28210655 0.79532063 0.014729831 1.0227202e-38
-0.28729588 0.80995047 -0.19840683 1.1239184e-38
-0.28443357 0.80188107 0.044590235 1.0596339e-38
-0.29206091 0.82338423 -0.16982001 1.1607248e-38
-0.29173276 0.82245904 0.076348431 1.0963688e-38
-0.28461912 0.80240411 -0.13484651 1.1514336e-38
-0.29132792 0.82131773 0.10700128 1.0871495e-38
-0.28800982 0.81196326 -0.10578259 1.1515774e-38
-0.29056245 0.81915969 0.13766234 1.1332476e-38
-0.28240797 0.79617041 -0.073908068 1.068494e-38
-0.28221616 0.79562968 0.16409573 1.1424671e-38
-0.29444885 0.83011633 -0.046160314 1.0871128e-38
-0.28599295 0.80627728 0.19750702 1.1700904e-38
-0.28544903 0.80474389 -0.014904355 1.0594542e-38
-0.28868097 0.81385541 0.23138423 5.6051939e-45
-0.28545189 0.80475187 -0.22879604 1.7514259e-38
-0.28210655 0.79532063 0.014729831 1.0227202e-38
-0.28208417 0.79525751 -0.19480762 1.1332462e-38
-0.28710431 0.80941045 0.045008924 1.1055523e-38
-0.28549775 0.80488122 -0.16600382 1.133138e-38
-0.29373094 0.82809234 0.076871365 1.0870776e-38
-0.28527948 0.80426586 -0.13515937 1.1514336e-38
-0.29000068 0.81757593 0.10651381 1.0963691e-38
-0.28933707 0.81570506 -0.10627007 1.1055875e-38
-0.29254353 0.82474482 0.13860093 1.1147363e-38
-0.28840247 0.81307024 -0.07547687 1.1331383e-38
-0.28418511 0.8011806 0.16524059 1.133176e-38
-0.28843969 0.81317514 -0.045218267 1.0962603e-38
-0.28599295 0.80627728 0.19750702 1.1700904e-38
-0.28478053 0.80285925 -0.014869451 1.0594542e-38
-0.29061842 0.81931752 0.23293714 3.1350396e-39
-0.28045985 0.80855024 -0.22931367 1.7330231e-38
-0.27916864 0.80482781 0.014869451 1.022576e-38
-0.27780265 0.80088967 -0.19570741 1.1607604e-38
-0.27817398 0.80196029 0.044485562 1.1056239e-38
-0.28630555 0.82540309 -0.16982001 1.1423932e-38
-0.28728971 0.82824039 0.076697052 1.0963328e-38
-0.28030509 0.80810416 -0.13547225 1.1239187e-38
-0.28168374 0.81207871 0.10553885 1.1515066e-38
-0.28103319 0.81020325 -0.10529511 1.142286e-38
-0.29001543 0.83609855 0.14016528 1.1239561e-38
-0.28141335 0.81129915 -0.07512825 1.09626e-38
-0.2798717 0.80685472 0.16600382 1.1516867e-38
-0.28013757 0.80762118 -0.044799577 1.1055519e-38
-0.27907988 0.80457193 0.19660722 1.1424316e-38
-0.27785799 0.80104923 -0.014799641 9.9495386e-39
-0.28615767 0.8249768 0.23397242 1.7521051e-39
-0.28172603 0.81220061 -0.23034894 1.7423498e-38
-0.27720267 0.79916 0.014764735 8.8424722e-39
-0.27780265 0.80088967 -0.19570741 1.1607604e-38
-0.27751946 0.80007333 0.044380892 1.0872568e-38
-0.27858496 0.80314505 -0.16524059 1.1238468e-38
-0.28794265 0.83012277 0.076871365 1.0963328e-38
-0.28159982 0.81183672 -0.13609798 1.1423578e-38
-0.28038266 0.80832773 0.10505138 1.1055886e-38
-0.27843103 0.80270135 -0.10432016 1.1239187e-38
-0.28677866 0.82676709 0.13860093 1.1608341e-38
-0.28010747 0.8075344 -0.07477963 1.0501622e-38
-0.27665481 0.79758054 0.16409573 1.1792738e-38
-0.28471926 0.82082993 -0.045532282 1.1146992e-38
-0.27780265 0.80088967 0.19570741 1.1700542e-38
-0.27589202 0.79538143 -0.014694926 9.5840071e-39
-0.28679076 0.82680196 0.23449005 1.5680754e-39
-0.27218679 0.80321783 -0.22724313 1.7422782e-38
-0.27853662 0.8219561 0.015148689 1.0409798e-38
-0.27456626 0.81023967 -0.19750702 1.1332459e-38
-0.2730692 0.8058219 0.044590235 1.050271e-38
-0.27031031 0.79768038 -0.16371411 1.133138e-38
-0.28199509 0.83216196 0.076871365 1.1330675e-38
-0.27641726 0.8157019 -0.13641085 1.1239187e-38
-0.27841386 0.82159388 0.10651381 1.0963691e-38
-0.27204284 0.80279315 -0.10407642 1.1423578e-38
-0.27831921 0.82131451 0.13734946 1.1147369e-38
-0.2736823 0.80763113 -0.074605316 1.1054796e-38
-0.27724135 0.81813377 0.16791192 1.1423955e-38
-0.27499223 0.81149668 -0.044904251 1.0962603e-38
-0.27081364 0.79916579 0.19480762 1.1608707e-38
-0.26955158 0.79544139 -0.014660021 4.8860153e-39
-0.27776691 0.81968474 0.23190187 1.8370042e-40
-0.26970673 0.79589921 -0.22517256 1.7332041e-38
-0.27083516 0.7992292 0.014729831 4.6094284e-39
-0.27394083 0.80839401 -0.19705713 1.1332459e-38
-0.2717872 0.80203867 0.044380892 9.5807533e-39
-0.27094039 0.7995398 -0.16409573 1.133138e-38
-0.2736823 0.80763113 0.074605316 1.1055883e-38
-0.27514929 0.81196016 -0.13578512 1.1699446e-38
-0.27841386 0.82159388 0.10651381 1.0963691e-38
-0.27586547 0.81407356 -0.10553885 1.1330664e-38
-0.27705124 0.81757277 0.13672373 1.1423955e-38
-0.27176398 0.80197018 -0.074082382 1.0871484e-38
-0.27094039 0.7995398 0.16409573 1.1424316e-38
-0.27883828 0.82284629 -0.045532282 1.105552e-38
-0.2733154 0.80654836 0.19660722 1.1239924e-38
-0.2740441 0.80869877 -0.014904355 1.1045567e-39
-0.27838692 0.82151437 0.23241951 3.6988394e-40
-0.26657268 0.80509847 -0.22724313 2.3048907e-39
-0.26524892 0.80110049 0.014729831 4.3339135e-39
-0.26522788 0.80103695 -0.19480762 1.1607251e-38
-0.26743689 0.80770862 0.044590235 1.4468934e-38
-0.26967168 0.81445807 -0.16676706 1.1053714e-38
-0.27116862 0.81897914 0.07547687 1.1055523e-38
-0.26574862 0.80260968 -0.1339079 1.1607248e-38
-0.26892754 0.81221068 0.10505138 1.1147719e-38
-0.27204737 0.82163304 -0.10627007 1.1423578e-38
-0.27444133 0.82886332 0.13828807 1.124028e-38
-0.26615858 0.80384785 -0.074082382 1.0686736e-38
-0.26411781 0.79768431 0.16333251 1.1148085e-38
-0.26994804 0.81529272 -0.045008924 1.2070391e-38
-0.26890308 0.81213677 0.19750702 1.1333199e-38
-0.26587749 0.80299884 -0.014764735 9.2232344e-40
-0.26839435 0.81060028 0.22879604 1.935495e-38
-0.26535821 0.80143058 -0.22620785 7.0064923e-45
-0.26650602 0.80489719 0.014799641 3.3186909e-39
-0.26584041 0.8028869 -0.19525751 1.1331383e-38
-0.26492575 0.80012453 0.044171546 3.2268442e-39
-0.26967168 0.81445807 -0.16676706 1.1053714e-38
-0.27304739 0.82465333 0.075999811 1.1055883e-38
-0.27009499 0.81573647 -0.13609798 1.1146992e-38
-0.2683036 0.81032622 0.10480764 1.105552e-38
-0.26705566 0.80655724 -0.10432016 1.1515052e-38
-0.27382043 0.82698804 0.1379752 1.1423953e-38
-0.26553234 0.80195647 -0.073908068 1.0686736e-38
-0.26411781 0.79768431 0.16333251 1.1148085e-38
-0.26618132 0.80391657 -0.044380892 2.1205023e-39
-0.26706547 0.80658686 0.19615732 1.1608707e-38
-0.27082327 0.81793606 0.23086658 1.908234e-38
-0.26182228 0.80868667 -0.22776076 1.7330584e-38
-0.26171017 0.80834031 -0.19615732 1.1423581e-38
-0.25838295 0.79806364 0.043962203 9.0348046e-39
-0.25821686 0.79755068 -0.16295089 1.1239187e-38
-0.26818582 0.82834166 0.076174118 1.1055883e-38
-0.26467893 0.81750989 -0.13609798 1.1239187e-38
-0.26414636 0.81586498 0.10529511 1.1240277e-38
-0.26047766 0.80453348 -0.10383268 1.123919e-38
-0.26407045 0.81563056 0.13578512 1.0963693e-38
-0.26082146 0.8055954 -0.074082382 1.0593463e-38
-0.26244992 0.81062526 0.1656222 1.1240277e-38
-0.26391974 0.81516498 -0.044904251 6.4501628e-40
-0.25990939 0.80277836 0.19480762 1.1608344e-38
-0.26479754 0.81787628 0.23034894 1.9543313e-38
-0.26003712 0.80317289 -0.22620785 1.6961448e-38
-0.26110992 0.80648637 -0.19570741 1.1239187e-38
-0.25899816 0.79996377 0.044066876 8.8493357e-39
-0.25882158 0.79941845 -0.16333251 1.0871484e-38
-0.27002692 0.83402818 0.076697052 1.0871132e-38
-0.26528737 0.81938922 -0.13641085 1.1146276e-38
-0.26598069 0.8215307 0.10602633 1.1055523e-38
-0.26292345 0.81208783 -0.10480764 1.0687806e-38
-0.26407045 0.81563056 0.13578512 1.0963693e-38
-0.25468448 0.78664023 -0.072339267 8.4740456e-39
-0.26124048 0.80688965 0.16485897 1.1424669e-38
-0.26171017 0.80834031 0.19615732 1.1516151e-38
-0.26360744 0.81420046 0.22931367 2.0001762e-38
-0.25297952 0.801373 -0.22517256 1.7606818e-38
-0.25636438 0.8120954 -0.19660722 1.1330664e-38
-0.25372845 0.80374545 0.044171546 8.8504147e-39
-0.26004684 0.82376045 -0.16791192 1.1330664e-38
-0.26090702 0.82648534 0.075825498 1.1239914e-38
-0.25451654 0.80624193 -0.1339079 1.1423578e-38
-0.25696352 0.81399333 0.10480764 1.1055167e-38
-0.25935388 0.82156533 -0.10578259 1.1238468e-38
-0.25986853 0.82319558 0.13672373 1.1701258e-38
-0.25251004 0.79988581 -0.073385134 1.4284175e-38
-0.25472769 0.80691075 0.16447735 1.1791656e-38
-0.25636438 0.8120954 0.19660722 1.1793454e-38
-0.25414264 0.80505747 0.22620785 1.6217751e-38
-0.25181639 0.79768854 -0.22413729 1.5577796e-38
-0.25284451 0.80094534 -0.19390781 1.123919e-38
-0.25236362 0.79942203 -0.16295089 1.1239187e-38
-0.26150683 0.82838529 0.075999811 1.1239914e-38
-0.25273255 0.80059069 -0.13296929 1.1146273e-38
-0.25935388 0.82156533 0.10578259 1.1055523e-38
-0.25875628 0.81967235 -0.10553885 1.1238468e-38
-0.26165253 0.82884681 0.13766234 1.1701256e-38
-0.25610876 0.81128561 -0.074431002 9.671507e-39
-0.25177261 0.79754984 0.16256927 1.1331754e-38
-0.25871095 0.81952876 0.19840683 1.1884934e-38
-0.25705045 0.81426865 0.22879604 1.9258401e-38
-0.25050575 0.81226343 -0.22776076 1.7329865e-38
-0.24637829 0.79888022 -0.19300801 1.077749e-38
-0.25399917 0.82359093 -0.1675303 1.1330664e-38
-0.25248402 0.81867802 0.074953936 1.0503435e-38
-0.24974594 0.80979985 -0.13422076 1.1331383e-38
-0.24921922 0.80809194 0.10383268 1.1240277e-38
-0.24863419 0.80619502 -0.10358894 1.0870405e-38
-0.25614968 0.8305639 0.13766234 1.1700537e-38
-0.2507225 0.81296635 -0.074431002 1.6128452e-38
-0.24821332 0.80483031 0.16371411 1.1239561e-38
-0.24522968 0.79515588 0.1921082 1.1332476e-38
-0.25392172 0.82333976 0.23086658 1.7236244e-38
-0.25107506 0.8141095 -0.2282784 1.7329865e-38
-0.24867553 0.80632901 -0.19480762 1.1054796e-38
-0.24763474 0.80295426 -0.16333251 1.1054796e-38
-0.25835574 0.83771706 0.076697052 1.0871492e-38
-0.25207457 0.81735039 -0.13547225 1.0686013e-38
-0.24980424 0.80998886 0.10407642 1.1055167e-38
-0.24687913 0.80050421 -0.10285772 1.142286e-38
-0.25556752 0.82867628 0.13734946 1.1793451e-38
-0.2487919 0.80670637 0.16409573 1.1607265e-38
-0.24522968 0.79515588 0.1921082 1.1332476e-38
-0.25562972 0.82887793 0.23241951 1.9914267e-38
-0.2428775 0.80852741 -0.22620785 1.7330231e-38
-0.24219756 0.80626386 -0.19435771 1.1146994e-38
-0.24682553 0.82167017 -0.16676706 1.1239184e-38
-0.24876887 0.82813942 0.075651184 1.6587261e-38
-0.24493976 0.81539249 -0.13484651 1.0870405e-38
-0.24500225 0.81560057 0.1045639 1.077858e-38
-0.24443115 0.81369942 -0.10432016 1.1331383e-38
-0.24834959 0.82674366 0.13672373 1.1791653e-38
-0.24174218 0.80474794 0.16333251 1.1331757e-38
-0.24051563 0.80066484 0.19300801 1.1608344e-38
-0.24343328 0.81037754 0.22672549 1.6862402e-38
-0.24065436 0.80112666 -0.22413729 1.7885938e-38
-0.2427582 0.8081302 -0.19480762 1.1146992e-38
-0.24004772 0.79910719 -0.16218765 1.0686013e-38
-0.24647607 0.82050681 0.074953936 1.0602134e-38
-0.24493976 0.81539249 -0.13484651 1.0870405e-38
-0.24842885 0.82700759 0.10602633 1.1330312e-38
-0.24557336 0.81750172 -0.10480764 1.1146994e-38
-0.24664468 0.82106811 0.13578512 1.1055523e-38
-0.24061254 0.80098742 0.16256927 1.1424669e-38
-0.24331884 0.80999655 0.19525751 1.1332473e-38
-0.24343328 0.81037754 0.22672549 1.6862402e-38
-0.23642284 0.80641276 -0.22517256 4.0562546e-39
-0.23574843 0.80411237 -0.1934579 1.1054796e-38
-0.23916128 0.81575328 -0.16524059 1.0963323e-38
-0.24775527 0.84506643 0.077045679 1.6772368e-38
-0.2345248 0.79993874 -0.1320307 1.1054796e-38
-0.23847067 0.81339771 0.10407642 1.096477e-38
-0.23958763 0.81720752 -0.1045639 1.1515774e-38
-0.24230525 0.82647699 0.13641085 1.1608341e-38
-0.2347426 0.80068165 0.16218765 1.1516864e-38
-0.23520017 0.80224234 0.19300801 1.1793454e-38
-0.23479234 0.80085129 0.22361965 1.3912863e-38
-0.23696634 0.80826658 -0.2256902 3.5037969e-39
-0.23355541 0.79663229 -0.1916583 1.0869686e-38
-0.23695195 0.80821747 -0.16371411 1.0870405e-38
-0.23841502 0.81320786 -0.13422076 1.1148071e-38
-0.23623677 0.80577809 0.10310146 1.1147719e-38
-0.23679525 0.80768299 -0.1033452 1.1514336e-38
-0.24230525 0.82647699 0.13641085 1.1608341e-38
-0.23363793 0.79691374 0.16142441 1.1516864e-38
-0.23465191 0.8003723 0.19255811 1.1607268e-38
-0.24022736 0.81938952 0.22879604 1.8336444e-38
-0.23156503 0.8118397 -0.22620785 1.0130813e-39
-0.23038222 0.80769289 -0.19390781 1.1238468e-38
-0.23479065 0.82314837 -0.16638544 1.0870407e-38
-0.23244755 0.81493372 -0.13422076 1.1054799e-38
-0.23576881 0.82657766 0.10553885 1.0871492e-38
-0.2292348 0.80367017 -0.10261399 1.3913584e-38
-0.23082204 0.80923486 0.13328217 1.1700537e-38
-0.22994407 0.80615675 0.16295089 1.142395e-38
-0.2282441 0.80019689 0.1921082 1.1239561e-38
-0.23421451 0.82112843 0.22879604 1.8061297e-38
-0.22626606 0.79326212 -0.22103146 1.2003523e-39
-0.22984768 0.80581892 -0.1934579 1.1146273e-38
-0.22832853 0.80049288 -0.16180603 1.1054796e-38
-0.23461489 0.82253212 -0.13547225 1.0779288e-38
-0.23304631 0.81703287 0.10432016 1.1147719e-38
-0.23032381 0.80748808 -0.10310146 1.1146273e-38
-0.2286547 0.8016364 0.1320307 1.133176e-38
-0.23048258 0.80804473 0.16333251 1.1331754e-38
-0.2282441 0.80019689 0.1921082 1.1239561e-38
-0.22944544 0.80440867 0.22413729 1.3544801e-38
-0.22203512 0.79846776 -0.22206675 3.5873241e-43
-0.22606455 0.81295806 -0.19480762 1.0962598e-38
-0.3365702 1.2103511 0.065838635 1.1147719e-38
-0.22774827 0.819013 -0.16524059 1.0778932e-38
-0.2222746 0.79932892 -0.13140495 1.0778209e-38
-0.23028159 0.82812315 0.10553885 1.0963328e-38
-0.22496331 0.80899787 -0.10310146 9.7651361e-39
-0.22862531 0.82216692 0.13515937 1.133211e-38
-0.22248851 0.80009812 0.16142441 1.1147719e-38
-0.22449827 0.80732554 0.1934579 1.1701258e-38
-0.22307026 0.80219024 0.22310202 1.3912509e-38
-0.22462295 0.80777389 -0.22465493 1.7975967e-38
-0.22502036 0.80920309 -0.19390781 1.09626e-38
-0.32265794 1.1603206 0.063117161 1.1054444e-38
-0.22406644 0.8057726 -0.16256927 1.0778206e-38
-0.32133746 1.1555721 0.10493551 1.0779302e-38
-0.22492073 0.80884475 -0.13296929 1.0963325e-38
-0.22602697 0.81282294 0.10358894 1.0871132e-38
-0.22815429 0.82047302 -0.1045639 1.1515774e-38
-0.22968376 0.82597321 0.13578512 1.1055523e-38
-0.22301447 0.80198961 0.16180603 1.1515422e-38
-0.22658664 0.81483555 0.19525751 1.1424669e-38
-0.32251579 1.1598095 -0.021012697 1.0871484e-38
-0.22669321 0.81521881 0.22672549 1.5387272e-38
-0.21796909 0.80559278 -0.22361965 1.8805717e-38
-0.31179959 1.1523813 0.020838173 1.0871132e-38
-0.21732976 0.80322987 -0.1921082 1.1054796e-38
-0.29733542 1.0989231 0.05966299 1.0319397e-38
-0.22356327 0.82626832 -0.16638544 1.105408e-38
-0.2976512 1.1000901 0.099706173 1.1330678e-38
-0.22030035 0.81420892 -0.13359503 1.1055875e-38
-0.21931 0.81054872 0.10310146 1.1240277e-38
-0.22553156 0.833543 -0.10602633 1.1515055e-38
-0.22545961 0.83327705 0.13672373 1.1147363e-38
-0.21741015 0.803527 0.16180603 1.142395e-38
-0.3072466 1.1355538 -0.061651755 1.1240266e-38
-0.21631181 0.79946768 0.19120839 1.1424671e-38
-0.2225101 0.82237595 0.2282784 1.8428283e-38
-0.21847364 0.80745757 -0.22413729 1.8805717e-38
-0.21732976 0.80322987 -0.1921082 1.1054796e-38
-0.31089807 1.1490494 0.06238446 1.1055523e-38
-0.21587187 0.79784167 -0.16066118 1.0871484e-38
-0.22030035 0.81420892 -0.13359503 1.1055875e-38
-0.2208654 0.81629729 0.10383268 1.1055523e-38
-0.27582252 1.0194135 -0.12966898 1.1330661e-38
-0.21926849 0.8103953 0.13296929 1.1608697e-38
-0.30337524 1.1212457 -0.10162359 1.1331383e-38
-0.21843566 0.8073172 0.16256927 1.1239559e-38
-0.3072466 1.1355538 -0.061651755 1.1240266e-38
-0.21529387 0.79570544 0.19030859 1.1793451e-38
-0.30187634 1.1157058 -0.020174982 1.0963323e-38
-0.22099642 0.81678158 0.22672549 1.5847887e-38
-0.20988208 0.79775345 -0.22103146 2.0283067e-39
-0.21221273 0.80661213 -0.19255811 1.1239187e-38
-0.21379328 0.81261981 -0.16333251 1.077749e-38
-0.21561597 0.81954777 -0.13422076 1.1330664e-38
-0.21617138 0.82165885 0.10432016 1.0134283e-38
-0.28082076 1.0673885 -0.13551871 1.1423578e-38
-0.21511337 0.81763738 0.1339079 1.1516864e-38
-0.29199165 1.1098486 -0.10040341 1.1330664e-38
-0.21379328 0.81261981 0.16333251 1.1239561e-38
-0.21270855 0.80849677 0.19300801 1.1885647e-38
-0.20988208 0.79775345 0.22103146 1.2900152e-38
-0.20988208 0.79775345 -0.22103146 2.0283067e-39
-0.21469185 0.81603515 -0.19480762 1.0961881e-38
-0.21129569 0.80312657 -0.16142441 1.0870405e-38
-0.21611857 0.82145816 -0.13453364 1.1054796e-38
-0.21768659 0.82741815 0.10505138 1.0686738e-38
-0.21611857 0.82145816 0.13453364 1.160906e-38
-0.21079618 0.80122793 0.16104279 1.1055167e-38
-0.20923777 0.79530448 0.18985869 1.1239559e-38
-0.21037361 0.79962176 0.22154911 1.3268934e-38
-0.20526458 0.80294257 -0.22206675 1.8438846e-40
-0.2041631 0.79863387 -0.19030859 1.068709e-38
-0.21054621 0.82360297 -0.16524059 1.09626e-38
-0.20548597 0.80380857 -0.13140495 1.09626e-38
-0.20600496 0.80583876 0.10212651 8.3944925e-39
-0.21380326 0.83634371 0.13672373 1.1608697e-38
-0.20568371 0.80458212 0.16142441 1.1331031e-38
-0.20609373 0.80618596 0.1921082 1.0779302e-38
-0.20861389 0.81604421 0.2256902 1.3818875e-38
-0.20622154 0.80668592 -0.22310202 1.4751284e-38
-0.2041631 0.79863387 -0.19030859 1.068709e-38
-0.21005997 0.82170087 -0.16485897 1.0870402e-38
-0.20891073 0.81720543 -0.13359503 1.0870405e-38
-0.20649663 0.80776203 0.10237025 8.3944925e-39
-0.21331401 0.83442986 0.13641085 1.1608697e-38
-0.20519747 0.80268002 0.16104279 1.1515066e-38
-0.20368046 0.79674584 0.18985869 1.124028e-38
-0.20813543 0.81417257 0.22517256 1.3727396e-38
-0.2013739 0.81189102 -0.22413729 1.834402e-38
-0.20031956 0.80764008 -0.1921082 1.09626e-38
-0.20181154 0.81365538 -0.16295089 1.0594541e-38
-0.20115545 0.8110103 -0.13234356 1.0502698e-38
-0.20787942 0.83811969 0.10602633 1.4187287e-38
-0.20067991 0.809093 0.1320307 1.1331757e-38
-0.2013389 0.81174988 0.16256927 1.1148082e-38
-0.19891216 0.80196583 0.1907585 1.1424669e-38
-0.20323418 0.81939119 0.22620785 1.4188014e-38
-0.19858351 0.80064082 -0.22103146 9.219563e-40
-0.19938129 0.80385721 -0.19120839 1.1054796e-38
-0.19708528 0.79460025 -0.1591347 1.0870405e-38
-0.20495982 0.82634854 -0.13484651 1.0593821e-38
-0.20353319 0.82059669 0.1339079 1.1515422e-38
-0.19897577 0.80222231 0.16066118 1.1424669e-38
-0.19750476 0.79629153 0.18940879 1.1423953e-38
-0.19997871 0.80626589 0.22258438 1.3544801e-38
-0.19191127 0.79630601 -0.21947855 1.4736853e-39
-0.19678502 0.81652886 -0.19390781 1.0870407e-38
-0.19825068 0.82261038 -0.16447735 1.0779288e-38
-0.1943838 0.80656534 -0.13140495 1.0870407e-38
-0.19901198 0.82576931 0.13453364 1.1332107e-38
-0.19319092 0.80161572 0.16027956 1.0963328e-38
-0.19495872 0.8089509 0.1921082 1.1424671e-38
-0.19417438 0.80569637 0.22206675 1.3359332e-38
-0.19236389 0.7981841 -0.21999618 9.219591e-40
-0.19358899 0.80326742 -0.1907585 1.0316512e-38
-0.19457085 0.80734152 -0.16142441 1.0593818e-38
-0.19392098 0.80464494 -0.13109209 1.1054799e-38
-0.1994748 0.82768971 0.13484651 1.1332107e-38
-0.19319092 0.80161572 0.16027956 1.0963328e-38
-0.19404556 0.80516189 0.19120839 1.1147363e-38
-0.19372176 0.80381829 0.22154911 1.2990907e-38
-0.18810537 0.80515116 -0.22154911 3.5873241e-43
-0.18797645 0.80459929 -0.1907585 1.0778209e-38
-0.19294964 0.82588619 -0.16485897 1.0779651e-38
-0.18919761 0.80982631 -0.13171782 1.0870407e-38
-0.19234341 0.82329136 0.1339079 1.1608697e-38
-0.18848321 0.80676842 0.16104279 1.0963691e-38
-0.18575974 0.79511112 0.18850899 1.1423953e-38
-0.19162135 0.82020068 0.2256902 1.4095814e-38
-0.19030286 0.81455714 -0.22413729 1.7699013e-38
-0.18797645 0.80459929 -0.1907585 1.0778209e-38
-0.18803656 0.80485666 -0.16066118 1.1054077e-38
-0.19099522 0.81752062 -0.13296929 1.0686016e-38
-0.18874821 0.80790275 0.13140495 1.1885284e-38
-0.18848321 0.80676842 0.16104279 1.0963691e-38
-0.18575974 0.79511112 0.18850899 1.1423953e-38
-0.18810537 0.80515116 0.22154911 1.2807237e-38
-0.1817726 0.80462402 -0.22103146 9.1835496e-41
-0.18250285 0.80785644 -0.19120839 1.0869689e-38
-0.18515998 0.81961834 -0.16333251 1.0962603e-38
-0.18673855 0.82660604 -0.13422076 1.09626e-38
-0.18456212 0.8169719 0.13265643 1.142395e-38
-0.18429475 0.81578839 0.16256927 1.0962972e-38
-0.18121459 0.80215394 0.18985869 1.1239559e-38
-0.18134691 0.80273968 0.22051382 1.2254064e-38
-0.18134691 0.80273968 -0.22051382 1.6595241e-39
-0.18250285 0.80785644 -0.19120839 1.0869689e-38
-0.54177535 2.3981912 0.12885113 1.1222494e-38
-0.18515998 0.81961834 -0.16333251 1.0962603e-38
-0.54264957 2.402061 0.21544899 2.194256e-38
-0.18325625 0.81119144 -0.13171782 1.0593463e-38
-0.54897326 2.4300532 0.30589205 2.194256e-38
-0.53803754 2.3816457 -0.29979858 1.8713886e-38
-0.18456212 0.8169719 0.13265643 1.142395e-38
-0.53694212 2.3767967 -0.21318294 2.6733201e-39
-0.18169904 0.8042984 0.16027956 1.1148435e-38
-0.54221547 2.4001393 -0.1289558 3.6843079e-40
-0.18207343 0.80595565 0.1907585 1.0779296e-38
-0.5393517 2.3874629 -0.042723492 4.3350009e-39
-0.1821983 0.80650836 0.22154911 1.3082748e-38
-0.17477942 0.79826331 -0.21896091 1.1963824e-39
-0.17714097 0.80904907 -0.19120839 1.09626e-38
-0.17594087 0.80356795 -0.15989794 1.1054077e-38
-0.17787224 0.81238902 -0.13171782 1.0963323e-38
-0.17829473 0.81431866 0.1320307 1.1608697e-38
-0.17594087 0.80356795 0.15989794 1.142395e-38
-0.17755777 0.81095272 0.1916583 1.1147363e-38
-0.17725855 0.80958617 0.22206675 1.3451528e-38
-0.17643218 0.80581188 -0.22103146 2.7550649e-40
-0.17505695 0.79953086 -0.18895888 1.09626e-38
-0.18055984 0.824664 -0.16409573 1.0593099e-38
-0.52585441 2.4017146 0.21510038 2.1758888e-38
-0.17829473 0.81431866 -0.1320307 1.1423224e-38
-0.52774966 2.4103708 0.30296719 2.194256e-38
-0.51755983 2.363831 -0.29711747 1.8529494e-38
-0.18294223 0.835545 0.13547225 1.133211e-38
-0.5147748 2.3511112 -0.21056828 1.4754972e-39
-0.17636077 0.80548579 0.16027956 1.0962972e-38
-0.51731455 2.3627107 -0.12675768 7.3793218e-40
-0.17297293 0.79001266 0.18670937 1.133176e-38
-0.5226503 2.3870804 -0.04265368 4.6108689e-39
-0.18097727 0.82657051 0.22672549 1.3911426e-38
-0.17000228 0.80324399 -0.21999618 2.1197834e-39
-0.5072149 2.3965402 0.042758394 1.2446413e-38
-0.17068146 0.80645305 -0.19030859 1.041015e-38
-0.50701046 2.3955743 0.12832777 1.3553193e-38
-0.16870064 0.79709381 -0.15837146 1.0501619e-38
-0.51154983 2.4170225 0.21614625 2.1849645e-38
-0.17178738 0.81167841 -0.13140495 1.0225758e-38
-0.51008731 2.4101121 0.30247971 2.194256e-38
-0.49981159 2.3615603 -0.29638624 1.89894e-38
-0.17260543 0.81554353 0.1320307 1.1700537e-38
-0.50329906 2.3780382 -0.21266001 1.474777e-39
-0.17113969 0.80861807 0.16066118 1.1147363e-38
-0.50411564 2.3818965 -0.12759507 1.4762203e-39
-0.17027795 0.80454654 0.18985869 1.0870776e-38
-0.50473058 2.3848021 -0.042548966 3.2279373e-39
-0.17360233 0.82025385 0.22465493 1.3819946e-38
-0.16800226 0.79379404 -0.217408 1.3453324e-38
-0.50804299 2.4004529 0.042828206 1.3275455e-38
-0.17229547 0.81407905 -0.1921082 1.0686736e-38
-0.50535625 2.3877585 0.12790908 8.9419756e-39
-0.1723592 0.81438023 -0.16180603 1.0870405e-38
-0.50907463 2.4053271 0.21510038 2.1850364e-38
-0.17505953 0.82713896 -0.1339079 1.0133919e-38
-0.51090938 2.4139965 0.30296719 2.194256e-38
-0.50063366 2.3654447 -0.29687372 1.8989403e-38
-0.1721964 0.81361097 0.13171782 1.1516145e-38
-0.49999872 2.3624446 -0.21126552 1.3825827e-39
-0.1723592 0.81438023 0.16180603 1.142395e-38
-0.50494272 2.3858044 -0.1278044 1.5691348e-39
-0.16906744 0.79882699 0.18850899 1.0871495e-38
-0.50348842 2.378933 -0.042444251 3.2283002e-39
-0.16760226 0.79190409 0.21689036 1.1978196e-38
-0.1627042 0.79686874 -0.21792564 1.096622e-38
-0.48685241 2.3844342 0.042479157 1.3458753e-38
-0.16490628 0.80765373 -0.19030859 1.0870405e-38
-0.48825705 2.3913136 0.12790908 3.681766e-39
-0.16417074 0.80405134 -0.15951632 1.0687453e-38
-0.49105239 2.4050043 0.21475175 2.194256e-38
-0.1639989 0.80320966 -0.12984061 1.0686013e-38
-0.49401939 2.4195354 0.30321091 2.2034756e-38
-0.48329711 2.3670216 -0.29663 1.862206e-38
-0.1655796 0.81095147 0.13109209 1.1793088e-38
-0.48148644 2.3581536 -0.21056828 9.2160457e-40
-0.16377799 0.80212772 0.1591347 1.1608341e-38
-0.48745793 2.3873997 -0.12769973 1.9371984e-39
-0.16490628 0.80765373 0.19030859 1.142395e-38
-0.48605233 2.3805156 -0.042409349 3.7818271e-39
-0.16463655 0.80633271 0.22051382 1.2069672e-38
-0.1627042 0.79686874 -0.21792564 1.096622e-38
-0.48845258 2.3922713 0.042618778 1.3458753e-38
-0.16451643 0.80574441 -0.18985869 1.0870405e-38
-0.49065438 2.4030547 0.1285371 3.8658013e-39
-0.16809827 0.82328701 -0.16333251 1.0687092e-38
-0.49264672 2.4128127 0.21544899 2.194256e-38
-0.16360372 0.80127424 -0.12952773 1.0041368e-38
-0.4924309 2.4117556 0.30223596 2.194256e-38
-0.48409134 2.3709114 -0.29711747 1.8530217e-38
-0.1675555 0.8206287 0.13265643 1.1424306e-38
-0.48387793 2.3698661 -0.21161415 1.5669768e-39
-0.16456349 0.8059749 0.15989794 1.1515066e-38
-0.48546013 2.3776152 -0.12717637 1.9368453e-39
-0.16529614 0.8095631 0.1907585 1.133211e-38
-0.48685241 2.3844342 -0.042479157 5.810131e-39
-0.16502303 0.80822551 0.22103146 1.2989831e-38
-0.16012307 0.8131488 -0.22206675 1.5118626e-38
-0.47173962 2.395623 0.042618778 1.3183238e-38
-0.15775777 0.80113721 -0.18850899 1.0687453e-38
-0.47077897 2.3907447 0.12769973 4.0498282e-39
-0.16158797 0.82058793 -0.16256927 1.0594897e-38
-0.47579023 2.4161932 0.21544899 2.194256e-38
-0.15953246 0.81014949 -0.13077921 1.0501622e-38
-0.47366413 2.4053962 0.30101728 2.166561e-38
-0.46637699 2.3683901 -0.29638624 1.8990844e-38
-0.16258571 0.82565475 0.13328217 1.0871129e-38
-0.46578172 2.3653672 -0.21091689 1.7513652e-39
-0.15855345 0.80517781 0.15951632 1.142395e-38
-0.46846369 2.3789868 -0.12707171 1.6595325e-39
-0.15738127 0.79922521 0.18805908 1.0962972e-38
-0.46942148 2.3838508 -0.042409349 3.643376e-43
-0.15974982 0.81125337 0.22154911 1.2254064e-38
-0.15937658 0.80935788 -0.22103146 2.7550649e-40
-0.47328502 2.403471 0.042758394 1.36435e-38
-0.1581343 0.80304927 -0.18895888 1.0042083e-38
-0.46923545 2.3829062 0.12728104 3.9587018e-39
-0.15931208 0.80903035 -0.16027956 1.0133919e-38
-0.47656012 2.4201028 0.21579762 2.194256e-38
-0.15915079 0.80821133 -0.13046634 1.0500903e-38
-0.47481474 2.4112394 0.30174848 2.1757806e-38
-0.46484286 2.3605993 -0.29541129 1.9083039e-38
-0.15876915 0.80627316 0.13015348 1.1607618e-38
-0.46732149 2.3731866 -0.21161415 1.9357565e-39
-0.15893276 0.80710411 0.15989794 1.142395e-38
-0.4676919 2.3750677 -0.12686236 1.6595325e-39
-0.15625174 0.79348916 0.18670937 1.1055167e-38
-0.46710336 2.3720787 -0.042199917 5.6051939e-45
-0.1619893 0.82262605 0.22465493 1.3543362e-38
-0.1509811 0.7952404 -0.21689036 1.1515408e-38
-0.45542231 2.3987784 0.042618778 1.5120095e-38
-0.15375495 0.80985063 -0.19030859 1.0410506e-38
-0.45449492 2.3938937 0.12769973 3.866523e-39
-0.15270296 0.80430961 -0.1591347 1.0318307e-38
-0.45858958 2.4154608 0.21510038 2.194256e-38
-0.15511966 0.81703871 -0.13171782 1.0501625e-38
-0.45839107 2.4144154 0.30174848 2.1754929e-38
-0.4502452 2.3715098 -0.29638624 1.9359626e-38
-0.15327738 0.8073352 0.13015348 1.1700893e-38
-0.451157 2.3763125 -0.21161415 9.2195518e-39
-0.15380153 0.81009603 0.16027956 1.1240275e-38
-0.45188716 2.3801582 -0.12696703 7.3793218e-40
-0.15012008 0.7907052 0.18580957 1.1239914e-38
-0.45094642 2.3752031 -0.042199917 5.257683e-39
-0.15350346 0.80852604 0.22051382 1.1884202e-38
-0.15242246 0.80283219 -0.21896091 1.836752e-40
-0.45393035 2.3909202 0.042479157 1.5948787e-38
-0.15411843 0.81176519 -0.1907585 1.0593821e-38
-0.45374984 2.3899693 0.12749039 4.0501982e-39
-0.15490012 0.81588238 -0.16142441 1.0409427e-38
-0.4563598 2.4037163 0.21405451 2.194256e-38
-0.15327738 0.8073352 -0.13015348 1.0871481e-38
-0.45987216 2.4222164 0.30272344 2.1756364e-38
-0.4502452 2.3715098 -0.29638624 1.9359626e-38
-0.1554881 0.81897944 0.1320307 1.1424306e-38
-0.44744071 2.3567381 -0.20987102 1.0418458e-38
-0.15123817 0.79659444 0.15760823 1.1239559e-38
-0.45300478 2.386045 -0.12728104 7.3793218e-40
-0.15302797 0.80602157 0.18940879 1.1331754e-38
-0.4516924 2.3791325 -0.042269729 5.1644084e-39
-0.15206212 0.80093426 0.21844327 1.2346258e-38
-0.14681396 0.8038767 -0.21896091 5.5461852e-40
-0.43650913 2.3900964 0.042409349 1.6138236e-38
-0.14564663 0.79748511 -0.18715927 1.0684576e-38
-0.43920678 2.4048674 0.12811843 8.2659093e-40
-0.14496782 0.79376823 -0.15684499 1.0594897e-38
-0.44028363 2.4107637 0.21440312 2.2034756e-38
-0.14728253 0.80644238 -0.12984061 1.0410868e-38
-0.44081095 2.413651 0.30126101 2.0743298e-38
-0.43260816 2.3687367 -0.29565504 1.9174159e-38
-0.14905702 0.81615853 0.13140495 1.1792732e-38
-0.43240863 2.3676443 -0.21056828 1.2997406e-38
-0.14532053 0.79569954 0.15722661 1.0871495e-38
-0.43382433 2.375396 -0.12654833 1.0145191e-39
-0.14669697 0.80323619 0.18850899 1.1699814e-38
-0.43507206 2.3822279 -0.042269729 9.8090893e-45
-0.14854935 0.81337881 0.22154911 1.234518e-38
-0.14716104 0.80577713 -0.21947855 5.5461852e-40
-0.43722767 2.3940308 0.042479157 1.6137517e-38
-0.14564663 0.79748511 -0.18715927 1.0684576e-38
-0.4370538 2.3930788 0.12749039 1.0134405e-38
-0.15096405 0.82660049 -0.16333251 1.0410506e-38
-0.44028363 2.4107637 0.21440312 2.2034756e-38
-0.14799233 0.81032884 -0.13046634 1.0870402e-38
-0.43938437 2.4058399 0.30028605 2.1018446e-38
-0.43225151 2.3667841 -0.29541129 1.9267078e-38
-0.1497668 0.82004499 0.1320307 1.1608694e-38
-0.43240863 2.3676443 -0.21056828 1.2997406e-38
-0.14673142 0.80342478 0.15875308 1.1884205e-38
-0.43382433 2.375396 -0.12654833 1.0145191e-39
-0.14529653 0.79556805 0.18670937 1.1608341e-38
-0.43614987 2.3881292 -0.042374443 1.8548147e-40
-0.14785519 0.809578 0.22051382 1.2160789e-38
-0.14200705 0.80866289 -0.21999618 2.8025969e-45
-0.42161375 2.4008906 0.042548966 1.1892899e-38
-0.14088911 0.80229676 -0.18805908 1.0778209e-38
-0.41937283 2.3881297 0.12707171 1.3975699e-38
-0.14261758 0.81213957 -0.16027956 9.9491715e-39
-0.42386401 2.4137046 0.21440312 2.1850361e-38
-0.14418152 0.8210454 -0.1320307 1.0686016e-38
-0.42368498 2.4126854 0.30077353 2.0373795e-38
-0.41510141 2.363806 -0.29468006 1.9175238e-38
-0.14281486 0.813263 0.13077921 1.1700893e-38
-0.41697192 2.3744576 -0.21091689 1.391936e-38
-0.14193845 0.80827224 0.15951632 1.1793085e-38
-0.4176456 2.3782938 -0.12654833 4.6134529e-40
-0.13819267 0.78694177 0.18445987 1.1147363e-38
-0.41815504 2.3811951 -0.042199917 5.5282205e-40
-0.14234118 0.81056565 0.22051382 1.3451885e-38
-0.14033638 0.79914922 -0.217408 1.0596713e-38
-0.42230549 2.4048297 0.042618778 1.4752042e-38
-0.14223734 0.80997419 -0.18985869 1.0041367e-38
-0.42006373 2.3920639 0.12728104 1.3975699e-38
-0.14295715 0.81407326 -0.16066118 1.0225758e-38
-0.42248559 2.4058554 0.21370588 2.1850364e-38
-0.14349818 0.81715423 -0.13140495 1.0133919e-38
-0.42437166 2.4165957 0.30126101 2.0281599e-38
-0.41544476 2.365761 -0.29492381 1.8897572e-38
-0.14452317 0.82299101 0.13234356 1.142395e-38
-0.41352585 2.3548338 -0.20917378 1.4379619e-38
-0.14261758 0.81213957 0.16027956 1.1239914e-38
-0.41799104 2.3802609 -0.12665302 4.6134529e-40
-0.14021499 0.79845798 0.18715927 1.1422871e-38
-0.41677159 2.3733168 -0.042060301 5.5354092e-40
-0.14167292 0.80676013 0.21947855 1.2345538e-38
-0.13589628 0.80775326 -0.21947855 1.8442797e-39
-0.40276384 2.3939862 0.042374443 2.3970976e-39
-0.13740762 0.81673652 -0.19120839 1.0687092e-38
-0.40359861 2.3989477 0.12749039 1.7192813e-38
-0.13582528 0.8073312 -0.1591347 1.031831e-38
-0.40525898 2.4088168 0.21370588 2.1758888e-38
-0.13633621 0.81036812 -0.13015348 1.0409429e-38
-0.40772685 2.4234858 0.30174848 1.9913537e-38
-0.39784655 2.3647583 -0.29443634 1.8621708e-38
-0.13830259 0.82205611 0.1320307 1.2160789e-38
-0.39666459 2.3577328 -0.20917378 1.3549495e-38
-0.13582528 0.8073312 0.1591347 1.1331754e-38
-0.40227315 2.3910694 -0.12707171 5.5282205e-40
-0.13546775 0.80520612 0.18850899 1.1147363e-38
-0.39977795 2.3762383 -0.042060301 2.7803163e-40
-0.1365373 0.81156343 0.22051382 1.2437733e-38
-0.13589628 0.80775326 -0.21947855 1.8442797e-39
-0.40176857 2.3880701 0.042269729 2.8580757e-39
-0.13514443 0.80328435 -0.18805908 1.0133919e-38
-0.40359861 2.3989477 0.12749039 1.7192813e-38
-0.13875675 0.82475561 -0.16256927 1.0041723e-38
-0.40393677 2.4009578 0.21300864 2.194256e-38
