# .PCD v0.7 - Point Cloud Data file format
VERSION 0.7
FIELDS x y z
SIZE 4 4 4
TYPE F F F
COUNT 1 1 1
WIDTH 590
HEIGHT 1
VIEWPOINT 0 0 0 1 0 0 0
POINTS 590
DATA ascii
0.068934493 0.79592401 0.041868765
-0.033449627 0.80819803 0.042392123
0.074628189 0.79541034 0.041868765
0.075187899 0.80137593 0.042182781
0.068155847 0.78693372 0.013787401
-0.038608447 0.79797018 0.041868765
-0.028331341 0.81538367 0.014241164
-0.044456784 0.79766572 0.041868765
0.080783688 0.80086124 0.070421837
-0.04590163 0.82358986 0.043229502
0.068328395 0.78892595 -0.013822306
-0.033573125 0.81118184 -0.014171354
-0.05113212 0.81727409 0.071642019
0.092185199 0.80163461 0.070596151
0.093323283 0.81153136 0.071467713
-0.039525293 0.8169198 -0.014276069
-0.044844847 0.80462855 -0.014066639
-0.062081583 0.81052077 0.071119085
0.10005043 0.82076609 0.072339267
-0.032788895 0.79223359 -0.041554749
0.069623835 0.80388325 -0.042287454
0.069796175 0.8058731 -0.042392123
-0.033367034 0.80620247 -0.042287454
0.075747609 0.80734152 -0.042496797
0.076120757 0.81131858 -0.042706139
0.081983373 0.81275457 -0.042810813
0.10988013 0.80843985 0.1001766
-0.073123373 0.80660993 0.099445388
-0.074019492 0.81649488 0.10066408
0.1150995 0.80370277 0.099689126
0.11566234 0.80763286 0.1001766
-0.079331808 0.81200683 0.1001766
0.1260009 0.80005652 0.099445388
-0.085619137 0.81735611 0.10090782
-0.089337938 0.79898328 0.098714165
-0.090440877 0.80884725 0.099932864
-0.038803171 0.80199474 -0.070247531
0.12847151 0.81574386 0.10139529
-0.039188314 0.809955 -0.070944771
0.13273242 0.80701542 0.10042034
0.13402109 0.81485051 0.10139529
-0.04534623 0.81362456 -0.071293399
-0.045457102 0.81561387 -0.071467713
0.091274723 0.79371727 -0.069898903
0.091729961 0.79767591 -0.070247531
-0.051007714 0.81528556 -0.071467713
0.13903484 0.80998206 0.10090782
0.09739849 0.79901081 -0.070421837
0.098121747 0.8049441 -0.070944771
0.14138566 0.82367742 0.10261399
0.14468615 0.80899167 0.10090782
0.14503562 0.81094575 0.10115156
0.10373887 0.80423945 -0.070944771
0.10706407 0.7877208 -0.069550283
0.15141974 0.81381667 0.10163903
0.15141974 0.81381667 0.10163903
0.15356813 0.79522538 0.099445388
-0.10147435 0.80551338 0.12858912
0.15620288 0.808869 0.10115156
0.16301598 0.81359798 0.10188277
-0.10891939 0.81849211 0.13077921
0.16340597 0.81554443 0.10212651
-0.11325118 0.80992639 0.12952773
-0.05607719 0.80598408 -0.099201642
-0.11379829 0.81383908 0.13015348
-0.056352753 0.80994469 -0.099689126
0.1678848 0.80855286 0.10139529
-0.061702605 0.80557299 -0.099201642
0.17143978 0.79765725 0.1001766
0.16990265 0.81827104 0.10261399
-0.067159601 0.8031444 -0.098957904
0.17310831 0.80542034 0.10115156
-0.12062596 0.82084233 0.13140495
-0.072944149 0.80463296 -0.099201642
-0.12454848 0.80826622 0.12952773
-0.068482943 0.81896991 -0.10090782
-0.073123373 0.80660993 -0.099445388
-0.12120037 0.82475108 0.1320307
-0.12515016 0.81217086 0.13015348
0.11453667 0.79977268 -0.099201642
0.11566234 0.80763286 -0.1001766
0.03612224 0.8047719 0.21585508
0.03612224 0.8047719 0.21585508
0.18174161 0.81775683 0.10285772
0.18389267 0.80099005 0.10090782
0.12159295 0.80876875 -0.10042034
-0.011080461 0.80357391 0.21533744
-0.011080461 0.80357391 0.21533744
0.025121029 0.81292146 0.21792564
0.12247833 0.81465787 -0.10115156
0.0082524745 0.81519961 0.21844327
0.041856542 0.81223178 0.21792564
0.019394994 0.81694305 0.21896091
0.19339217 0.81619734 0.073385134
0.013976435 0.81705374 0.21896091
0.047554407 0.80998296 0.217408
0.030941932 0.81658721 0.21896091
0.053222232 0.80769426 0.21689036
0.1272362 0.80790019 -0.10042034
0.0022819752 0.81717008 0.21896091
0.053349257 0.80962187 0.217408
0.042055387 0.81609035 0.21896091
0.12816268 0.81378293 -0.10115156
-0.0055754287 0.81908613 0.21947855
-0.016930873 0.81506556 0.21844327
0.059140611 0.81115645 0.21792564
0.064506978 0.8088094 0.217408
0.13273242 0.80701542 -0.10042034
0.13273242 0.80701542 -0.10042034
-0.13830259 0.82205611 0.1320307
-0.13830259 0.82205611 0.1320307
-0.022531679 0.81686258 0.21896091
0.059562042 0.81693667 0.21947855
-0.033552501 0.81068367 0.217408
0.070177525 0.81027621 0.21792564
0.19955844 0.8167628 0.073559448
-0.14281486 0.813263 0.13077921
-0.028510565 0.8205418 0.21999618
0.070844293 0.81797481 0.21999618
0.076334812 0.81360012 0.21896091
0.13937066 0.81193852 -0.10115156
-0.039491359 0.81621844 0.21896091
0.14328821 0.80117536 -0.099932864
-0.14452317 0.82299101 0.13234356
0.087272413 0.8086136 0.21792564
0.082206793 0.81496948 0.21947855
0.140714 0.81976444 -0.10212651
-0.050784789 0.81172246 0.21792564
-0.045580942 0.81783587 0.21947855
-0.045580942 0.81783587 0.21947855
0.2089529 0.80621928 0.043648187
0.14503562 0.81094575 -0.10115156
-0.14905702 0.81615853 0.13140495
0.092915423 0.80798459 0.21792564
-0.061670639 0.80515563 0.21637273
-0.1497668 0.82004499 0.1320307
0.098179244 0.80541581 0.217408
-0.056718569 0.81520247 0.21896091
-0.15327738 0.8073352 0.13015348
0.15033039 0.80796188 -0.10090782
0.21340732 0.80091846 0.043438844
0.15069352 0.80991346 -0.10115156
-0.067290135 0.80470544 0.21637273
-0.078175224 0.80016857 -0.12733765
0.088930793 0.8239792 0.22206675
-0.067451119 0.80663061 0.21689036
0.1550737 0.80302173 -0.10042034
0.1045411 0.81045866 0.21896091
0.21621722 0.78981543 0.042915486
-0.1554881 0.81897944 0.1320307
0.10478824 0.81237465 0.21947855
0.21727194 0.79366815 0.043124828
0.15620288 0.808869 -0.10115156
-0.15876915 0.80627316 0.13015348
-0.07971184 0.81589669 -0.12984061
0.10979507 0.80781406 0.21844327
-0.084788494 0.80942643 -0.128902
-0.073778443 0.81383592 0.21896091
0.16067603 0.80191958 -0.10042034
0.11529894 0.80509537 0.21792564
0.16184601 0.80775875 -0.10115156
0.18696108 0.78905541 -0.070944771
-0.085817479 0.81924957 -0.13046634
-0.07430169 0.81960779 0.22051382
0.20283182 0.80572152 -0.043543514
0.11612055 0.81083238 0.21947855
-0.09065675 0.81077796 -0.12921487
0.12091671 0.8042708 0.21792564
0.12091671 0.8042708 0.21792564
-0.079646088 0.81522369 0.21947855
0.22348683 0.79401565 0.043229502
-0.091095768 0.81470424 -0.12984061
-0.084731646 0.80888379 0.21792564
0.21572709 0.80962455 -0.014625116
-0.16258571 0.82565475 0.13328217
-0.1655796 0.81095147 0.13109209
0.12622805 0.80149877 0.217408
0.18813519 0.81946945 -0.073559448
0.12682913 0.80531543 0.21844327
-0.096781209 0.81404841 -0.12984061
-0.096781209 0.81404841 -0.12984061
0.1934109 0.79160184 -0.071293399
0.16869195 0.8124401 -0.10188277
0.16869195 0.8124401 -0.10188277
-0.090591282 0.81019241 0.21844327
-0.090591282 0.81019241 0.21844327
-0.1675555 0.8206287 0.13265643
0.17227404 0.80153877 -0.10066408
0.17227404 0.80153877 -0.10066408
-0.086140491 0.82233316 0.22154911
0.13230775 0.80443347 0.21844327
-0.096017167 0.8076219 0.21792564
0.21186462 0.7951287 -0.043124828
-0.10246193 0.81335294 -0.12984061
0.22874877 0.79148167 0.014380783
-0.1721964 0.81361097 0.13171782
-0.10295573 0.81727266 -0.13046634
-0.10709538 0.80478531 -0.12858912
-0.17260543 0.81554353 0.1320307
0.13387538 0.81396466 0.22103146
-0.10165305 0.80693191 0.21792564
0.13824733 0.80539417 0.21896091
0.13824733 0.80539417 0.21896091
-0.10813767 0.81261778 -0.12984061
0.14318639 0.80060607 0.21792564
0.18001893 0.81000561 -0.10188277
0.18001893 0.81000561 -0.10188277
0.14386661 0.80440944 0.21896091
-0.10286033 0.81651539 0.22051382
-0.17829473 0.81431866 0.1320307
0.18344848 0.79905534 -0.10066408
-0.11407185 0.81579542 -0.13046634
-0.10804847 0.81194746 0.21947855
-0.11434539 0.81775177 -0.13077921
-0.11236098 0.80356008 0.217408
-0.11861552 0.80716163 -0.12921487
-0.11918993 0.81107038 -0.12984061
0.14983228 0.80528468 0.21947855
-0.12364595 0.80240917 -0.12858912
-0.11396614 0.81503952 0.22051382
-0.18456212 0.8169719 0.13265643
-0.18456212 0.8169719 0.13265643
0.15159917 0.81478101 0.22206675
-0.11881074 0.80849004 0.21896091
-0.11881074 0.80849004 0.21896091
-0.125451 0.81412321 -0.13046634
0.15604275 0.80803978 0.22051382
0.15604275 0.80803978 0.22051382
-0.12955923 0.80347663 -0.128902
-0.18874821 0.80790275 0.13140495
0.16092104 0.80314231 0.21947855
-0.13081709 0.81127739 -0.13015348
-0.13502528 0.80257612 -0.128902
-0.12562898 0.81527817 0.22103146
-0.12562898 0.81527817 0.22103146
0.16281869 0.81261337 0.22206675
-0.13633621 0.81036812 -0.13015348
0.16730955 0.80578232 0.22051382
-0.20600496 0.80583876 0.10212651
-0.20649663 0.80776203 0.10237025
0.16848779 0.81145686 0.22206675
-0.13224019 0.82010287 0.22258438
-0.1365373 0.81156343 0.22051382
-0.20067991 0.809093 0.1320307
-0.14349818 0.81715423 -0.13140495
0.17455462 0.81214952 0.22258438
0.17455462 0.81214952 0.22258438
-0.14728253 0.80644238 -0.12984061
-0.14418152 0.8210454 -0.1320307
-0.14167292 0.80676013 0.21947855
0.17854372 0.80336779 0.22051382
-0.14799233 0.81032884 -0.13046634
-0.14234118 0.81056565 0.22051382
0.18285108 0.79645312 0.21896091
-0.15327738 0.8073352 -0.13015348
-0.21617138 0.82165885 0.10432016
-0.14785519 0.809578 0.22051382
-0.14854935 0.81337881 0.22154911
-0.21931 0.81054872 0.10310146
0.18587698 0.8096332 0.22258438
-0.15511966 0.81703871 -0.13171782
-0.15915079 0.80821133 -0.13046634
0.19018848 0.80267644 0.22103146
-0.2208654 0.81629729 0.10383268
-0.15953246 0.81014949 -0.13077921
-0.15350346 0.80852604 0.22051382
-0.16360372 0.80127424 -0.12952773
-0.1639989 0.80320966 -0.12984061
0.19197011 0.81019562 0.22310202
0.19624606 0.80320573 0.22154911
-0.22602697 0.81282294 0.10358894
0.19670458 0.80508238 0.22206675
-0.15974982 0.81125337 0.22154911
0.0080764731 0.79781383 -0.21378453
-0.16502303 0.80822551 0.22103146
-0.17178738 0.81167841 -0.13140495
0.20279188 0.80556291 0.22258438
0.03612224 0.8047719 -0.21585508
-0.011053825 0.80164224 -0.2148198
-0.1619893 0.82262605 0.22465493
0.019211588 0.80921781 -0.21689036
0.02500169 0.80905962 -0.21689036
0.20647208 0.79664731 0.22051382
0.030649336 0.80886537 -0.21689036
0.030649336 0.80886537 -0.21689036
0.047214732 0.80419731 -0.21585508
0.041558277 0.80644387 -0.21637273
0.2037351 0.80930972 0.22361965
-0.0055096806 0.80942708 -0.21689036
0.013910352 0.81319058 -0.21792564
-0.23304631 0.81703287 0.10432016
0.047441181 0.80805439 -0.21689036
0.063739039 0.79918069 -0.2148198
0.063739039 0.79918069 -0.2148198
-0.022212081 0.80527586 -0.21585508
0.053222232 0.80769426 -0.21689036
0.053222232 0.80769426 -0.21689036
-0.01681051 0.80927128 -0.21689036
0.058859661 0.80730301 -0.21689036
-0.23623677 0.80577809 0.10310146
0.069510758 0.80257761 -0.21585508
0.080074072 0.7938264 -0.21378453
-0.17787224 0.81238902 -0.13171782
0.059140611 0.81115645 -0.21792564
0.0022927646 0.82103378 -0.21999618
-0.17829473 0.81431866 -0.1320307
0.075252049 0.80205965 -0.21585508
0.069844142 0.80642694 -0.21689036
-0.038931198 0.80464089 -0.21585508
-0.038931198 0.80464089 -0.21585508
0.21288465 0.79895687 0.22154911
-0.028376399 0.81668043 -0.21896091
0.075973891 0.8097533 -0.21792564
-0.17360233 0.82025385 0.22465493
-0.045043431 0.8081916 -0.21689036
-0.033792164 0.81647426 -0.21896091
-0.17725855 0.80958617 0.22206675
-0.18325625 0.81119144 -0.13171782
0.086857811 0.8047722 -0.21689036
0.086857811 0.8047722 -0.21689036
0.09225332 0.80222702 -0.21637273
-0.24647607 0.82050681 0.074953936
-0.045365937 0.8139782 -0.21844327
-0.056048136 0.80556655 -0.21637273
-0.050784789 0.81172246 -0.21792564
-0.056182224 0.80749375 -0.21689036
-0.066807196 0.79893005 -0.2148198
0.097945489 0.80349815 -0.21689036
0.097945489 0.80349815 -0.21689036
-0.061670639 0.80515563 -0.21637273
0.28759563 0.80278194 0.074605316
0.28964573 0.80850452 0.045008924
-0.061818179 0.80708182 -0.21689036
-0.18919761 0.80982631 -0.13171782
0.2173612 0.81575739 0.22620785
0.10330538 0.80087882 -0.21637273
0.28791377 0.82169288 0.076174118
-0.25372845 0.80374545 0.044171546
-0.19099522 0.81752062 -0.13296929
0.22188863 0.81053239 0.22517256
-0.18097727 0.82657051 0.22672549
0.28489 0.8130632 0.10578259
-0.19392098 0.80464494 -0.13109209
-0.25248402 0.81867802 0.074953936
-0.18810537 0.80515116 0.22154911
0.10927472 0.8039856 -0.217408
-0.1943838 0.80656534 -0.13140495
0.10478824 0.81237465 -0.21947855
0.22611272 0.80334508 0.22361965
-0.073429607 0.80998796 -0.21792564
0.11948065 0.79471892 -0.21533744
0.28788128 0.80357933 0.10480764
-0.078706868 0.80561018 -0.21689036
0.29000461 0.79247481 -0.014729831
-0.073778443 0.81383592 -0.21896091
-0.25838295 0.79806364 0.043962203
-0.083926596 0.80119842 -0.21585508
0.11557281 0.80700773 -0.21844327
-0.25899816 0.79996377 0.044066876
0.29550233 0.80749804 0.01500907
0.11584668 0.80892009 -0.21896091
0.12532641 0.79577374 -0.21585508
-0.19417438 0.80569637 0.22206675
-0.089517929 0.80059296 -0.21585508
-0.089517929 0.80059296 -0.21585508
-0.084731646 0.80888379 -0.21792564
0.12592751 0.79959041 -0.21689036
-0.19162135 0.82020068 0.2256902
0.28153792 0.82230496 0.13766234
-0.20115545 0.8110103 -0.13234356
0.23278832 0.80545872 0.22465493
0.23565917 0.7945534 0.22206675
-0.095332965 0.80186689 -0.21637273
0.23332471 0.80731463 0.22517256
0.13168071 0.80062097 -0.217408
-0.095561035 0.8037852 -0.21689036
-0.20548597 0.80380857 -0.13140495
-0.22496331 0.80899787 -0.10310146
-0.19997871 0.80626589 0.22258438
0.28965127 0.79150933 -0.044171546
-0.10117014 0.8030985 -0.21689036
-0.26524892 0.80110049 0.014729831
0.13324833 0.81015217 -0.21999618
0.1379205 0.80349016 -0.21844327
0.27850989 0.79485464 0.16371411
0.27850989 0.79485464 0.16371411
-0.2292348 0.80367017 -0.10261399
-0.10677431 0.80237263 -0.21689036
-0.10677431 0.80237263 -0.21689036
-0.10213596 0.81076527 -0.21896091
-0.22815429 0.82047302 -0.1045639
-0.23032381 0.80748808 -0.10310146
0.14771201 0.79388916 -0.21637273
0.14352651 0.80250776 -0.21844327
0.14352651 0.80250776 -0.21844327
0.29113582 0.81266385 0.13672373
-0.20323418 0.81939119 0.22620785
0.14877215 0.79958695 -0.21792564
-0.26587749 0.80299884 -0.014764735
-0.11236098 0.80356008 -0.217408
0.24513607 0.80582643 0.2256902
-0.20813543 0.81417257 0.22517256
-0.20861389 0.81604421 0.2256902
-0.11824898 0.80466735 -0.21792564
-0.11369862 0.81312627 -0.21999618
-0.2507225 0.81296635 -0.074431002
-0.21561597 0.81954777 -0.13422076
0.24682279 0.81137109 0.22724313
-0.23679525 0.80768299 -0.1033452
-0.25251004 0.79988581 -0.073385134
0.15978244 0.79745972 -0.21792564
0.15567647 0.80614299 -0.21999618
0.15567647 0.80614299 -0.21999618
0.25075579 0.80409545 0.2256902
-0.26391974 0.81516498 -0.044904251
-0.25468448 0.78664023 -0.072339267
-0.2222746 0.79932892 -0.13140495
-0.12415791 0.80573153 -0.21844327
-0.22030035 0.81420892 -0.13359503
-0.22030035 0.81420892 -0.13359503
0.27516207 0.78530014 0.1921082
-0.26618132 0.80391657 -0.044380892
0.16130057 0.80503654 -0.21999618
0.16534582 0.79632479 -0.21792564
0.16534582 0.79632479 -0.21792564
0.25248116 0.80962819 0.22724313
0.29373798 0.8026768 -0.07477963
-0.12947237 0.80293792 -0.21792564
0.27647913 0.80752945 0.19705713
0.25695127 0.80416542 0.22620785
-0.24443115 0.81369942 -0.10432016
-0.13070251 0.81056678 -0.21999618
0.17171302 0.7989285 -0.21896091
-0.24687913 0.80050421 -0.10285772
0.2978462 0.81390303 -0.075825498
-0.22099642 0.81678158 0.22672549
-0.13589628 0.80775326 -0.21947855
-0.13589628 0.80775326 -0.21947855
-0.14033638 0.79914922 -0.217408
0.17333679 0.80648339 -0.22103146
0.17728637 0.79771024 -0.21896091
0.26241904 0.80239779 0.22620785
0.2878868 0.78668767 -0.10285772
-0.2225101 0.82237595 0.2282784
-0.14200705 0.80866289 -0.21999618
-0.22669321 0.81521881 0.22672549
-0.22944544 0.80440867 0.22413729
0.28988975 0.80918568 -0.10553885
-0.14681396 0.8038767 -0.21896091
0.18371561 0.80021888 -0.21999618
-0.1509811 0.7952404 -0.21689036
-0.14716104 0.80577713 -0.21947855
0.29266217 0.79973698 -0.1045639
-0.15242246 0.80283219 -0.21896091
0.1854447 0.80775034 -0.22206675
0.18929768 0.79891682 -0.21999618
0.26722306 0.81708699 0.23034894
0.19441199 0.79569918 -0.21947855
0.1948705 0.79757583 -0.21999618
-0.23421451 0.82112843 0.22879604
0.27470881 0.80235881 0.22724313
-0.1627042 0.79686874 -0.21792564
-0.1627042 0.79686874 -0.21792564
0.19949062 0.79244912 -0.21896091
-0.15937658 0.80935788 -0.22103146
-0.16012307 0.8131488 -0.22206675
0.27721184 0.80966955 0.22931367
-0.16800226 0.79379404 -0.217408
-0.24022736 0.81938952 0.22879604
-0.24343328 0.81037754 0.22672549
-0.24343328 0.81037754 0.22672549
-0.17000228 0.80324399 -0.21999618
0.20326349 0.80743635 -0.22310202
0.20695676 0.79851735 -0.22103146
0.29122981 0.79582286 -0.13422076
0.29122981 0.79582286 -0.13422076
-0.17477942 0.79826331 -0.21896091
0.21139248 0.79335672 -0.21999618
0.28491506 0.81313467 0.23086658
-0.17643218 0.80581188 -0.22103146
0.21729782 0.79376274 -0.22051382
0.21437684 0.80455709 -0.22310202
-0.18134691 0.80273968 -0.22051382
-0.1817726 0.80462402 -0.22103146
0.29899344 0.79926896 -0.13515937
0.22297226 0.79218751 -0.22051382
-0.25392172 0.82333976 0.23086658
-0.25705045 0.81426865 0.22879604
-0.18810537 0.80515116 -0.22154911
0.22188863 0.81053239 -0.22517256
0.2284973 0.79061157 -0.22051382
-0.19236389 0.7981841 -0.21999618
-0.19030286 0.81455714 -0.22413729
0.23117919 0.79989105 -0.22310202
-0.26360744 0.81420046 0.22931367
-0.19858351 0.80064082 -0.22103146
-0.26479754 0.81787628 0.23034894
0.23620848 0.79640549 -0.22258438
-0.26839435 0.81060028 0.22879604
0.29440713 0.78700888 -0.16333251
0.29416546 0.80384487 -0.16638544
-0.2013739 0.81189102 -0.22413729
0.24176264 0.7947371 -0.22258438
-0.20526458 0.80294257 -0.22206675
-0.27082327 0.81793606 0.23086658
-0.20622154 0.80668592 -0.22310202
0.24344936 0.80028176 -0.22413729
-0.20988208 0.79775345 -0.22103146
-0.20988208 0.79775345 -0.22103146
-0.32869881 0.80105221 0.015113784
-0.32869881 0.80105221 0.015113784
-0.32981473 0.80377179 0.045532282
0.24730502 0.7930299 -0.22258438
0.27838412 0.79449564 -0.19435771
0.25283533 0.79128408 -0.22258438
-0.27776691 0.81968474 0.23190187
-0.33464694 0.79960728 0.045427609
-0.27838692 0.82151437 0.23241951
-0.33097616 0.80660224 -0.015218498
0.25133091 0.80593967 -0.22620785
-0.33173528 0.80845225 -0.015253403
-0.21796909 0.80559278 -0.22361965
-0.21847364 0.80745757 -0.22413729
-0.22203512 0.79846776 -0.22206675
0.28589559 0.79803652 -0.19570741
0.26001704 0.79505318 -0.22413729
-0.22462295 0.80777389 -0.22465493
0.26433456 0.78955477 -0.22310202
0.26181856 0.80056167 -0.2256902
0.29132101 0.79607201 -0.19570741
-0.28615767 0.8249768 0.23397242
0.29359615 0.78484094 -0.1934579
-0.3320893 0.80931503 -0.045846298
-0.28679076 0.82680196 0.23449005
-0.33284751 0.81116277 -0.045950968
-0.29061842 0.81931752 0.23293714
0.26970273 0.78773719 -0.22310202
0.26970273 0.78773719 -0.22310202
0.29632729 0.7921418 -0.19525751
-0.34459975 0.82338858 0.078091547
-0.34727633 0.81378436 0.046369657
-0.23156503 0.8118397 -0.22620785
-0.29487219 0.81368786 0.23190187
-0.32901058 0.80181205 -0.075825498
-0.34333768 0.82037294 0.10919493
-0.23642284 0.80641276 -0.22517256
-0.33127961 0.80734175 -0.076348431
-0.23696634 0.80826658 -0.2256902
-0.30001605 0.80974549 0.23138423
-0.24065436 0.80112666 -0.22413729
-0.35197985 0.82480627 0.046997689
-0.2428775 0.80852741 -0.22620785
-0.34394515 0.82182443 0.14110389
-0.27456626 0.81023967 -0.19750702
-0.30605662 0.82604909 0.23604298
-0.33880267 0.80953699 0.17058325
-0.29698983 0.81953138 -0.16943839
-0.30908081 0.81666517 0.23397242
-0.25297952 0.801373 -0.22517256
-0.25050575 0.81226343 -0.22776076
-0.34306136 0.8197127 -0.077742919
-0.30011827 0.81002134 -0.16791192
-0.25107506 0.8141095 -0.2282784
-0.31324029 0.81093824 0.23293714
-0.30368114 0.80239797 -0.16676706
-0.31532854 0.8163445 0.23449005
-0.3545981 0.81513071 0.14079101
-0.26003712 0.80317289 -0.22620785
-0.33760208 0.82274985 -0.10919493
-0.31903517 0.808676 0.23293714
-0.26182228 0.80868667 -0.22776076
-0.28729588 0.80995047 -0.19840683
-0.26535821 0.80143058 -0.22620785
-0.33585835 0.81850034 0.20425555
-0.31125805 0.80580646 -0.16791192
-0.26657268 0.80509847 -0.22724313
-0.32889426 0.81732571 -0.13953954
-0.29213837 0.80614406 -0.19795693
-0.26970673 0.79589921 -0.22517256
-0.32258001 0.81766129 0.23552532
-0.33070052 0.8059305 -0.1379752
-0.34113467 0.7993924 0.20065634
-0.29519132 0.79672354 -0.19615732
-0.29586837 0.7985509 -0.19660722
-0.340812 0.81433803 0.20380566
-0.27218679 0.80321783 -0.22724313
-0.32741696 0.81365442 0.23500769
-0.31845722 0.80721104 -0.16867515
-0.32813814 0.81544662 0.23552532
-0.32027978 0.79591811 -0.16676706
