# .PCD v0.7 - Point Cloud Data file format
VERSION 0.7
FIELDS x y z
SIZE 4 4 4
TYPE F F F
COUNT 1 1 1
WIDTH 1386
HEIGHT 1
VIEWPOINT 0 0 0 1 0 0 0
POINTS 1386
DATA ascii
-0.35087004 0.86236107 -0.11431345
-0.69740164 0.6270622 0.016370358
-0.66279024 0.63915545 -0.17897883
-0.65795243 0.65223563 -0.14673553
-0.37888876 0.84543246 -0.14673553
-0.35310423 0.85036933 -0.17897883
-0.35528451 0.85562003 -0.14673553
-0.35302055 0.86764657 -0.049091127
0.79581213 0.4978582 0.0491958
-0.89808995 0.17978212 -0.21145399
-0.74071825 0.57850438 -0.016405262
-0.71082669 0.60431945 0.11455718
-0.71605581 0.60876507 0.016405262
-0.71605581 0.60876507 -0.016405262
-0.70242697 0.61406267 0.11455718
-0.6801275 0.64699793 -0.0491958
-0.52900338 0.74769151 -0.21145399
-0.38156411 0.85140204 -0.11455718
-0.36379996 0.85914272 -0.11455718
0.73655963 0.58379 -0.016405262
0.74463886 0.57344908 -0.016405262
0.72954804 0.55375707 -0.21145399
0.84932518 0.38616502 -0.11455718
0.86717528 0.34421465 -0.11455718
0.87510175 0.33329412 -0.081926398
0.86680639 0.31634864 -0.17936045
0.87078327 0.28394315 -0.21145399
-0.70759434 0.61857992 0.016405262
-0.67846924 0.64542043 0.081926398
-0.67159158 0.64764297 0.11455718
-0.64128387 0.6539436 -0.21145399
-0.64399981 0.67508584 -0.11455718
-0.63451141 0.68401164 -0.11455718
-0.62279314 0.68085134 -0.17936045
-0.60881215 0.684277 -0.21145399
-0.60390002 0.68861598 -0.21145399
-0.60390002 0.68861598 -0.21145399
-0.59434819 0.69687688 -0.21145399
-0.58891416 0.71035904 -0.17936045
-0.549546 0.73272532 -0.21145399
-0.54454583 0.73644894 -0.21145399
-0.54454583 0.73644894 -0.21145399
-0.53952038 0.74013847 -0.21145399
-0.44607991 0.80773914 -0.17936045
-0.39462692 0.834086 -0.17936045
-0.3890864 0.83668488 -0.17936045
-0.38323581 0.8393808 -0.17936045
-0.37736651 0.84203583 -0.17936045
-0.37205544 0.86183208 -0.0491958
0.76696908 0.54123765 0.0491958
0.77813572 0.52505678 0.0491958
-0.73666155 0.58366144 0.016405262
-0.73666155 0.58366144 -0.016405262
-0.72360307 0.59797859 -0.0491958
-0.71092123 0.61300147 -0.0491958
-0.69812298 0.61895156 0.11455718
-0.68930328 0.62875885 -0.11455718
-0.68930328 0.62875885 -0.11455718
-0.68034583 0.63844049 0.11455718
-0.64636713 0.67756742 0.081926398
-0.60366166 0.69786996 -0.17936045
-0.54417557 0.75785857 -0.11455718
-0.40073043 0.83117086 -0.17936045
-0.40667734 0.84350556 0.081926398
-0.40518788 0.84041625 -0.11455718
-0.73801202 0.5763908 -0.081926398
-0.7050091 0.61631995 0.081926398
-0.69330907 0.63241279 0.082100712
-0.36457399 0.86097068 -0.11480092
0.745314 0.57396907 -0.049300469
0.8488943 0.40000239 -0.082100712
0.87375182 0.33277997 -0.11480092
0.86702162 0.2760351 -0.24380754
-0.73009425 0.59502614 0.016440166
-0.72742683 0.59285218 -0.082100712
-0.70809388 0.61056352 -0.11480092
-0.70909983 0.61989605 0.016440166
-0.69618422 0.61723268 -0.14736126
-0.69960833 0.62026846 -0.11480092
-0.69960833 0.62026846 -0.11480092
-0.695261 0.62513751 -0.11480092
-0.68898839 0.63711733 0.082100712
-0.68179333 0.63979888 -0.11480092
-0.66972655 0.6458444 -0.14736126
-0.67302048 0.64902091 0.11480092
-0.67081589 0.65622371 0.082100712
-0.65670329 0.65099734 -0.17974207
-0.65214252 0.6555661 -0.17974207
-0.61465156 0.69084024 -0.17974207
-0.46931708 0.79674226 -0.17974207
-0.44820487 0.82446092 0.082100712
-0.40133533 0.84826493 0.082100712
-0.38237593 0.85321355 0.11480092
-0.35855445 0.86349493 -0.11480092
0.86695027 0.36514473 -0.049300469
-0.90242857 0.1675811 -0.2119039
-0.72337461 0.59778982 -0.082100712
-0.70389628 0.62407011 -0.049300469
-0.69500363 0.63395852 -0.049300469
-0.67714548 0.65299881 -0.049300469
-0.63355166 0.66413331 -0.2119039
-0.5858041 0.70660758 -0.2119039
-0.53534693 0.74556315 -0.2119039
-0.5198797 0.75642967 -0.2119039
-0.3668085 0.86624765 -0.049300469
-0.34476754 0.86416668 -0.14736126
0.72988653 0.59528095 -0.016440166
0.73812681 0.58503211 -0.016440166
0.8824771 0.29475901 -0.14736126
-0.50913435 0.76370347 -0.2119039
0.74507535 0.57378525 -0.082275018
0.7300387 0.54633749 -0.24432518
0.85069662 0.40085164 -0.082275018
-0.7187205 0.59394372 -0.14767413
-0.72668219 0.60052317 -0.049405143
-0.66642916 0.63396686 -0.2123538
-0.65751266 0.64320987 -0.2123538
-0.58221436 0.71208727 -0.2123538
-0.51021528 0.76532489 -0.2123538
0.75475591 0.56483507 0.049405143
0.75692838 0.55805576 -0.082275018
0.78144693 0.52729106 0.049405143
0.87162316 0.35304374 -0.082275018
0.8661859 0.30945739 -0.2123538
0.86079997 0.30077338 -0.24432518
0.88298601 0.28111771 -0.18012369
-0.90434456 0.16793689 -0.2123538
-0.72630143 0.59193492 0.11504466
-0.72225547 0.59686494 0.11504466
-0.72225547 0.59686494 0.11504466
-0.72324753 0.60644668 0.016475072
-0.71822673 0.61061072 -0.049405143
-0.71385151 0.60689104 0.11504466
-0.71220571 0.61410898 0.082275018
-0.70100749 0.6303044 -0.049405143
-0.68907237 0.619573 -0.18012369
-0.69673717 0.62646472 -0.11504466
-0.69223648 0.63143438 0.11504466
-0.68462121 0.624488 -0.18012369
-0.67572457 0.63410389 -0.18012369
-0.68742853 0.64508694 -0.049405143
-0.67139274 0.63868868 -0.18012369
-0.67139274 0.63868868 -0.18012369
-0.66079652 0.66426551 -0.11504466
-0.64880931 0.66161764 -0.18012369
-0.63941222 0.66120636 -0.2123538
-0.63011801 0.67006952 -0.2123538
-0.63020152 0.67936552 -0.18012369
-0.37720928 0.85767937 -0.11504466
-0.37720928 0.85767937 -0.11504466
0.73558301 0.59142393 -0.016475072
0.86149162 0.37709287 -0.082275018
0.86667269 0.36502782 -0.082275018
-0.73164439 0.59628946 0.016475072
-0.72274667 0.58903784 -0.14767413
-0.72236639 0.60570782 -0.049405143
-0.72236639 0.60570782 -0.049405143
-0.70612431 0.6088652 -0.14767413
-0.68324089 0.64115727 -0.11504466
-0.6648466 0.66833687 -0.049405143
-0.64869565 0.6521011 -0.2123538
-0.55700821 0.73197252 -0.2123538
-0.53125447 0.75087321 -0.2123538
-0.40840787 0.84709495 0.082275018
-0.36954501 0.85601687 -0.14767413
-0.36534804 0.86279869 0.11504466
-0.35138616 0.86362964 -0.14767413
-0.75737649 0.56659001 -0.016509976
-0.68600583 0.63435936 -0.14798701
-0.68085033 0.65657157 0.016509976
-0.5632956 0.72960854 -0.21280369
-0.50592953 0.77049714 -0.21280369
-0.34996969 0.86014825 -0.18050531
0.76038599 0.56060493 -0.049509816
0.88204253 0.32190922 -0.1152884
-0.90506357 0.17461543 -0.21280369
-0.73234773 0.58024359 -0.14798701
-0.74136364 0.58738691 0.016509976
-0.72378564 0.59812951 -0.1152884
-0.71186268 0.60520023 -0.14798701
-0.71545905 0.61691421 -0.049509816
-0.69821328 0.627792 0.1152884
-0.69030786 0.62967521 -0.14798701
-0.68099958 0.62118447 -0.21280369
-0.67675555 0.6258055 -0.21280369
-0.67215002 0.63074952 -0.21280369
-0.63624191 0.66695338 -0.21280369
-0.59335434 0.7053802 -0.21280369
-0.57845181 0.71765178 -0.21280369
-0.56862873 0.72545981 -0.21280369
-0.53762019 0.74872899 -0.21280369
-0.52711385 0.75616241 -0.21280369
-0.36746791 0.86780494 0.082449332
-0.35213062 0.86545932 -0.14798701
0.73444825 0.59051156 -0.082449332
0.87316746 0.33255744 -0.14798701
-0.7404604 0.58667129 0.049509816
-0.72213185 0.60551113 0.082449332
-0.71799356 0.61041248 0.082449332
-0.70762032 0.61015517 -0.14798701
-0.70249271 0.63163978 -0.049509816
-0.68279988 0.64954019 0.082449332
-0.6546163 0.64892846 -0.21280369
-0.58344787 0.71359599 -0.21280369
-0.34410679 0.8625105 -0.18050531
0.76393276 0.55523336 -0.082623646
0.86968601 0.35916921 -0.11553214
-0.72534007 0.58297998 -0.18088692
-0.72100812 0.6045689 0.11553214
-0.71522349 0.61671114 -0.082623646
-0.70493793 0.61625773 -0.14829987
-0.70924377 0.62881118 0.016544882
-0.69772506 0.63644093 0.082623646
-0.4156599 0.83259279 -0.18088692
0.78104222 0.53499103 0.049614485
0.79207498 0.51851678 0.049614485
0.8777703 0.34842023 -0.082623646
0.88017195 0.28022179 -0.2132536
0.88672745 0.28230888 -0.18088692
0.87807971 0.25976571 -0.24536045
-0.90573329 0.18131217 -0.2132536
-0.74021667 0.58647817 -0.082623646
-0.73340827 0.58946466 -0.11553214
-0.73790342 0.59307754 -0.049614485
-0.73610425 0.59163153 -0.082623646
-0.73790342 0.59307754 -0.049614485
-0.71733665 0.59280014 -0.18088692
-0.71307635 0.59791809 -0.18088692
-0.71687633 0.60946262 -0.11553214
-0.7133677 0.6064797 -0.14829987
-0.70840508 0.61928874 -0.11553214
-0.69626492 0.62604016 -0.14829987
-0.67261606 0.65798473 -0.11553214
-0.66521662 0.65074629 -0.18088692
-0.65600026 0.65030038 -0.2132536
-0.65144432 0.65486425 -0.2132536
-0.6186766 0.68590534 -0.2132536
-0.60429835 0.69860601 -0.2132536
-0.59460878 0.70687151 -0.2132536
-0.56983089 0.72699356 -0.2132536
-0.54411209 0.74643749 -0.2132536
-0.51759678 0.76506239 -0.2132536
-0.51759678 0.76506239 -0.2132536
-0.38649738 0.84652448 -0.18088692
-0.3448343 0.86433399 -0.18088692
0.68222201 0.62273598 -0.2132536
0.74823248 0.57621658 -0.082623646
0.8741104 0.29859325 -0.2132536
0.88062078 0.30081719 -0.18088692
-0.90990806 0.19506738 -0.18088692
-0.74202585 0.58791161 -0.049614485
-0.73384941 0.59808654 -0.049614485
-0.71260405 0.61445248 0.11553214
-0.71260405 0.61445248 -0.11553214
-0.71274698 0.62308443 -0.049614485
-0.47492355 0.81895667 -0.049614485
-0.35461065 0.87155473 -0.11553214
-0.34867001 0.87394828 -0.11553214
-0.729379 0.59444314 -0.11553214
0.87911236 0.32798731 -0.14861274
-0.74036217 0.59505373 0.016579786
-0.72328866 0.59771878 -0.14861274
-0.72518522 0.60807145 0.082797952
-0.72102946 0.61299348 0.082797952
-0.52429479 0.76285368 -0.2137035
0.73518831 0.59960496 0.049719159
0.8703621 0.29071245 -0.24587809
-0.73544437 0.58269703 -0.14861274
-0.7273404 0.59278172 -0.14861274
-0.73360455 0.59788698 0.082797952
-0.69778806 0.61865461 -0.18126854
-0.70814335 0.62783557 0.082797952
-0.50265461 0.77728319 -0.2137035
-0.91233617 0.15644018 -0.2137035
-0.90508658 0.19403376 -0.2137035
-0.91040552 0.20199876 -0.18126854
-0.70103025 0.60447282 -0.2137035
-0.69262934 0.61408097 -0.2137035
-0.70374304 0.63276398 0.082797952
-0.67499208 0.63341653 -0.2137035
-0.66169178 0.6472981 -0.2137035
-0.60123521 0.73535115 0.016579786
-0.42129728 0.81520092 -0.24587809
0.87371755 0.32597455 -0.18126854
-0.70625156 0.60897493 -0.18126854
-0.36362544 0.85873061 -0.18126854
-0.71198148 0.6053012 -0.18165016
0.75541091 0.5733881 -0.082972266
0.76715606 0.55757612 -0.082972266
0.80597144 0.50421381 0.049823832
0.87568384 0.30597398 -0.21415341
0.88220596 0.30825287 -0.18165016
-0.75017422 0.58588952 0.01661469
-0.73650283 0.59195185 0.11601961
-0.73105371 0.60413575 0.082972266
-0.73105371 0.60413575 -0.082972266
-0.72050667 0.60414839 -0.14892562
-0.72050667 0.60414839 -0.14892562
-0.71139413 0.62190175 0.11601961
-0.644831 0.6668098 -0.21415341
-0.63084364 0.68005776 -0.21415341
0.76903111 0.55893892 0.049823832
0.87136078 0.37436613 -0.082972266
0.87656599 0.36201057 -0.082972266
0.88855034 0.33150852 -0.082972266
0.88329256 0.3223654 -0.14892562
0.87425679 0.28507578 -0.24639574
0.88178474 0.26086175 -0.24639574
-0.74515676 0.59039223 -0.049823832
-0.74061745 0.58679575 0.11601961
-0.69491196 0.62482363 -0.18165016
-0.68612033 0.63446522 -0.18165016
-0.66770953 0.64389932 -0.21415341
-0.58212066 0.72220349 -0.21415341
0.750072 0.58602047 -0.01661469
0.75929636 0.56823295 -0.082972266
-0.74333996 0.58895278 -0.082972266
-0.73245651 0.59695137 0.11601961
-0.72837627 0.60192317 -0.11601961
-0.7240504 0.60711986 0.11601961
-0.7240504 0.60711986 -0.11601961
-0.7156108 0.6170451 0.11601961
-0.70264173 0.63177377 0.11601961
-0.55656153 0.74207926 -0.21415341
-0.75490987 0.58114904 0.049928501
-0.71975023 0.62061441 0.08314658
-0.44548225 0.8066569 -0.24691337
-0.42877594 0.81565982 -0.24691337
0.75699794 0.57459271 -0.08314658
0.75884813 0.57599711 -0.049928501
0.76275122 0.57081848 -0.049928501
0.8678683 0.3873077 -0.08314658
-0.91951531 0.17740363 -0.18203178
-0.91825438 0.18381868 -0.18203178
-0.90670562 0.29618192 -0.016649596
-0.73400873 0.5815596 -0.18203178
-0.7380501 0.5931955 0.11626335
-0.71112502 0.6304791 0.08314658
-0.70072609 0.62125951 -0.18203178
-0.69776529 0.64523351 0.08314658
-0.66911227 0.64525205 -0.2146033
-0.49930951 0.7840609 -0.2146033
-0.49930951 0.7840609 -0.2146033
-0.74372929 0.58926123 -0.11650709
-0.72390395 0.62419599 0.016684501
-0.55893934 0.76677823 -0.11650709
0.74221194 0.59675372 -0.083320893
0.78384769 0.54499125 0.050033174
0.88024902 0.36353162 -0.083320893
-0.91322798 0.21604626 -0.1824134
-0.90860647 0.29680285 -0.016684501
-0.71438318 0.62451482 -0.11650709
-0.68819827 0.62775093 -0.2150532
-0.53268588 0.76415563 -0.2150532
-0.3778019 0.85902679 -0.1824134
0.7481842 0.59300345 -0.050033174
0.76842391 0.566531 0.050033174
0.88754874 0.34532717 -0.083320893
0.87719673 0.31339115 -0.2150532
-0.75057393 0.58620167 0.083320893
-0.74503815 0.59881198 0.016684501
-0.73959738 0.59443909 -0.11650709
-0.73412538 0.60667419 0.083320893
-0.72709262 0.60967076 -0.11650709
-0.70968723 0.60335076 -0.2150532
-0.71071208 0.6128211 -0.1824134
-0.69267273 0.62281024 -0.2150532
-0.69332403 0.63242644 -0.1824134
-0.48947567 0.79252869 -0.2150532
-0.43508634 0.81450218 -0.24743101
0.76043904 0.57720464 0.050033174
0.7643503 0.57201517 0.050033174
0.7643503 0.57201517 -0.050033174
-0.74231613 0.5966242 -0.083320893
-0.68390942 0.63242078 -0.2150532
0.89087564 0.33237603 -0.11675083
0.89406765 0.29153565 -0.18279502
-0.91892385 0.16401623 -0.21550311
-0.91892385 0.16401623 -0.21550311
-0.75345713 0.58003068 0.11675083
-0.74528521 0.59049404 0.11675083
-0.72896433 0.59410518 -0.18279502
0.75387973 0.5889954 -0.050137848
0.88424653 0.36518252 -0.050137848
0.89540488 0.30586737 -0.14986421
-0.71954435 0.59462452 -0.21550311
-0.73397368 0.61544055 0.016719405
-0.72059828 0.60422522 -0.18279502
-0.70276815 0.61436093 -0.21550311
-0.69846201 0.61925215 -0.21550311
-0.48624885 0.78730398 -0.24794865
-0.47375992 0.80428475 -0.21550311
-0.44735008 0.8100391 -0.24794865
0.74649209 0.60019505 -0.016719405
0.89324772 0.31211099 -0.14986421
-0.91128486 0.20219386 -0.21550311
-0.9052698 0.30941367 0.050137848
-0.74938947 0.5852766 0.11675083
-0.7375173 0.59276724 -0.14986421
-0.7375173 0.59276724 -0.14986421
-0.5068875 0.78382874 -0.21550311
-0.45695442 0.8139503 -0.21550311
0.68277228 0.6495139 -0.18317664
0.68717754 0.64485139 -0.18317664
-0.45220298 0.81882644 -0.21595301
0.77549356 0.56363589 0.050242517
0.8092646 0.51397127 0.050242517
0.87868315 0.37751207 -0.083669513
0.88136202 0.37121472 -0.083669513
-0.92193973 0.15808691 -0.21595301
-0.9227491 0.19126011 -0.18317664
-0.91555107 0.2231873 -0.18317664
-0.91555107 0.2231873 -0.18317664
-0.75555658 0.59009314 -0.050242517
-0.74958646 0.59390193 0.083669513
-0.70948046 0.62022883 -0.18317664
-0.48595572 0.79925674 -0.21595301
-0.47620106 0.79567397 -0.24846628
0.75131464 0.59548467 0.050242517
0.77940959 0.55820823 0.050242517
0.78328758 0.55275339 0.050242517
0.8972742 0.30650595 -0.15017709
0.8893106 0.28998446 -0.21595301
-0.92402959 0.18497477 -0.18317664
0.89568281 0.2991699 -0.18355826
-0.71946031 0.61165941 -0.18355826
0.74869567 0.60196674 -0.05034719
-0.92722613 0.1788913 -0.18355826
-0.90748739 0.2346922 -0.21640292
-0.75251842 0.58772033 0.11723831
-0.746975 0.60036868 0.083843827
-0.74287117 0.60543925 0.083843827
-0.71414137 0.60713744 -0.21640292
-0.70570248 0.61692607 -0.21640292
-0.49810326 0.79404467 -0.21640292
-0.48696813 0.80092186 -0.21640292
-0.48136482 0.80430198 -0.21640292
-0.47161514 0.80064362 -0.24898392
-0.46615443 0.80383521 -0.24898392
-0.46053129 0.80706996 -0.24898392
-0.43781701 0.81961411 -0.24898392
0.88923228 0.26966092 -0.24898392
-0.70988536 0.61210829 -0.21640292
-0.69702005 0.62671912 -0.21640292
-0.49378654 0.7871632 -0.24898392
-0.47573805 0.80764294 -0.21640292
-0.46455732 0.81412548 -0.21640292
0.7460227 0.60844123 0.050451864
0.75860131 0.59268427 0.050451864
0.79040706 0.54955184 0.050451864
0.80901361 0.52177346 0.050451864
0.89258498 0.35430074 -0.084018134
0.89887089 0.27258384 -0.21685281
-0.7596302 0.59327471 0.016824121
-0.75270975 0.59637654 0.084018134
-0.72405088 0.59834868 -0.21685281
-0.46148872 0.80874789 -0.24950156
-0.42172045 0.8301788 -0.24950156
0.61393714 0.72009951 -0.18393987
0.75444514 0.59796584 -0.050451864
0.77485424 0.57127184 0.050451864
0.78265709 0.56053412 0.050451864
-0.93231523 0.19324291 -0.15080282
-0.92240542 0.21125904 -0.18393987
-0.75870472 0.59255189 -0.050451864
-0.72810692 0.59340644 -0.21685281
-0.56361669 0.77319479 -0.11748204
-0.44473597 0.81808001 -0.24950156
0.81976342 0.50471634 0.050451864
0.88527685 0.28866917 -0.24950156
-0.73212922 0.58843666 -0.21685281
-0.74623501 0.60818082 -0.050451864
-0.49913883 0.79569548 -0.21685281
0.7518087 0.60446972 -0.050556533
0.7583217 0.59246588 -0.084192447
0.8910175 0.27700934 -0.25001919
-0.92220855 0.28705943 -0.016859025
-0.91599458 0.30630976 -0.016859025
-0.75974905 0.58487433 0.11772578
-0.75842512 0.5923335 0.084192447
-0.75150889 0.59542507 -0.11772578
-0.73364812 0.58965749 -0.21730272
-0.667005 0.65249574 -0.25001919
-0.50120848 0.78704286 -0.25001919
-0.49459571 0.80081868 -0.21730272
0.74340302 0.61477798 0.050556533
0.76017517 0.59391391 -0.050556533
0.90153378 0.2939702 -0.18432149
-0.92573869 0.20540084 -0.18432149
-0.92018205 0.29349062 -0.016859025
-0.7694326 0.58381951 -0.016859025
-0.73505169 0.59906644 -0.18432149
-0.65806067 0.66151536 -0.25001919
-0.63457328 0.68407834 -0.25001919
-0.4791773 0.80064696 -0.25001919
-0.51758116 0.77637374 -0.25001919
0.22841702 0.90668678 -0.25053683
-0.75721186 0.59138596 -0.11796953
-0.74476671 0.60698414 -0.11796953
0.75572848 0.59898305 -0.084366761
0.76174903 0.59514356 0.050661206
0.76588529 0.58981109 -0.050661206
0.75258875 0.5548563 -0.25053683
0.79751992 0.54627776 0.050661206
-0.92623281 0.21213563 -0.18470311
-0.91635561 0.22338343 -0.21775262
-0.92096376 0.29373994 0.050661206
-0.91789109 0.30694392 -0.016893929
-0.76412064 0.58823967 0.084366761
-0.75163388 0.60411322 0.084366761
-0.72273719 0.60601872 -0.21775262
-0.72273719 0.60601872 -0.21775262
-0.67304766 0.64904714 -0.25053683
-0.65942311 0.66288495 -0.25053683
-0.52393627 0.77443278 -0.25053683
-0.46906185 0.80884874 -0.25053683
-0.46172428 0.82244664 -0.21775262
-0.45597133 0.82565004 -0.21775262
-0.93748289 0.18766789 -0.15142857
-0.9304387 0.19285394 -0.18470311
-0.4843671 0.80931842 -0.21775262
-0.47316244 0.81591982 -0.21775262
-0.47316244 0.81591982 -0.21775262
0.80506945 0.53508943 0.050661206
0.62960225 0.72837257 -0.11821327
0.89999342 0.32846054 -0.15174143
-0.93531168 0.20752488 -0.15174143
-0.93186074 0.26879162 -0.016928835
-0.63720089 0.68691099 -0.25105447
-0.62754798 0.6957407 -0.25105447
-0.62279773 0.69999617 -0.25105447
-0.61296356 0.70862353 -0.25105447
-0.56217015 0.74955744 -0.25105447
-0.55191422 0.75714087 -0.25105447
-0.53580272 0.76862675 -0.25105447
-0.49233964 0.79716581 -0.25105447
-0.47553709 0.80730176 -0.25105447
-0.46842057 0.82089573 -0.21820252
-0.43596715 0.82933968 -0.25105447
-0.93617344 0.17384753 -0.18508473
-0.91772741 0.31367156 -0.016928835
-0.76850718 0.59161657 0.016928835
-0.58798689 0.7294814 -0.25105447
-0.51972437 0.77958852 -0.25105447
-0.50878894 0.78676903 -0.25105447
-0.50878894 0.78676903 -0.25105447
-0.44750404 0.82317179 -0.25105447
-0.54227138 0.7664445 -0.2515721
0.76070607 0.60292822 0.050870549
0.773166 0.58686495 0.050870549
0.75947344 0.5519923 -0.2515721
-0.9247694 0.29495373 0.050870549
-0.91849917 0.31393537 0.050870549
-0.45961425 0.81868809 -0.2515721
0.75885135 0.60145819 -0.084715381
0.76905012 0.59224832 0.050870549
0.76905012 0.59224832 0.050870549
0.75569862 0.55714905 -0.2515721
0.90961617 0.33197245 -0.084715381
-0.94135678 0.18844338 -0.15205429
-0.92589748 0.29531354 -0.016963739
-0.657368 0.67034525 -0.2515721
-0.65267211 0.67491817 -0.2515721
-0.65267211 0.67491817 -0.2515721
-0.57919365 0.73893857 -0.2515721
-0.57919365 0.73893857 -0.2515721
-0.53690743 0.77021158 -0.2515721
-0.51532954 0.78481269 -0.2515721
-0.48776606 0.80223423 -0.2515721
-0.43105364 0.83407927 -0.2515721
0.75647837 0.60822421 0.050870549
0.90240312 0.3511067 -0.084715381
-0.94389611 0.17528163 -0.15205429
-0.6431852 0.68396515 -0.2515721
-0.67252886 0.65789944 -0.25208974
-0.66815072 0.66234535 -0.25208974
-0.62032032 0.7073397 -0.25208974
-0.60562217 0.71996427 -0.25208974
-0.60045475 0.72427952 -0.25208974
-0.57494199 0.74469352 -0.25208974
0.62910438 0.72779661 -0.15236717
0.75376153 0.61475289 -0.050975222
0.89839655 0.2793034 -0.25208974
0.9040488 0.26042756 -0.25208974
-0.9412297 0.16799754 -0.18584797
-0.94003391 0.17456442 -0.18584797
-0.94661957 0.19620781 -0.11870074
-0.93916863 0.20838065 -0.15236717
-0.91712612 0.24402839 -0.21910232
-0.74523336 0.59896892 -0.18584797
-0.73701048 0.60905838 -0.18584797
-0.49366489 0.83807665 -0.050975222
-0.94063574 0.20165482 -0.15236717
-0.92729938 0.2329215 -0.18584797
-0.9245863 0.30202278 0.050975222
-0.5904116 0.73248953 -0.25208974
0.62413591 0.73206192 -0.15236717
0.75530928 0.6160152 -0.051079892
0.73882198 0.58558309 -0.25260738
-0.94392079 0.19564842 -0.15268004
-0.92434937 0.30910361 0.051079892
-0.61675507 0.71300679 -0.25260738
-0.54986244 0.76577854 -0.25260738
-0.54986244 0.76577854 -0.25260738
0.75496423 0.60700679 -0.11894448
0.89775991 0.31368762 -0.21955223
0.89212888 0.30474833 -0.25260738
-0.94778043 0.17600295 -0.15268004
-0.93233317 0.22056605 -0.18622959
-0.92069405 0.23810768 -0.21955223
-0.93261969 0.28317374 0.051079892
-0.93375731 0.28351915 -0.017033549
-0.92117816 0.32205063 -0.017033549
-0.65072995 0.68214077 -0.25260738
-0.65072995 0.68214077 -0.25260738
-0.63142973 0.70004427 -0.25260738
-0.46150565 0.82205719 -0.25260738
0.75623065 0.61676663 -0.017033549
-0.93762487 0.27045423 -0.017033549
-0.68304873 0.64977688 -0.25260738
-0.50097263 0.79861879 -0.25260738
-0.73717052 0.60079324 -0.21955223
-0.75247437 0.59619004 -0.18661119
0.62978142 0.73868364 -0.11918822
0.631688 0.73078549 -0.1529929
0.63479483 0.73437977 -0.11918822
-0.94136912 0.26460692 -0.017068453
-0.93567073 0.28410015 -0.017068453
-0.93366456 0.29062539 -0.017068453
-0.91853917 0.31394902 -0.11918822
-0.77201444 0.59431654 -0.085238315
-0.6800006 0.65575212 -0.25312501
-0.67089468 0.66506541 -0.25312501
-0.64715546 0.68818712 -0.25312501
-0.63760543 0.69704449 -0.25312501
-0.62793422 0.7057693 -0.25312501
-0.5564661 0.76338536 -0.25312501
-0.52934879 0.78243309 -0.25312501
-0.51851058 0.78965724 -0.25312501
-0.50743467 0.79681981 -0.25312501
-0.94622147 0.16225055 0.18661119
-0.95313317 0.18388958 -0.11918822
-0.95313317 0.18388958 -0.11918822
-0.93453079 0.28375402 0.051184565
-0.92838335 0.30326313 0.051184565
-0.61301601 0.71876502 -0.25312501
-0.49077696 0.80718631 -0.25312501
-0.77804172 0.59035182 -0.051184565
0.75233817 0.62216711 -0.085412629
-0.76284683 0.59578687 -0.15330577
0.23765129 0.91628993 -0.25364268
0.73772699 0.59314775 -0.25364268
0.83336943 0.51309335 0.051289238
0.91468418 0.34125876 -0.085412629
-0.92611396 0.23262376 -0.22045204
-0.91925764 0.25839168 -0.22045204
-0.93443406 0.29086491 0.051289238
-0.66277844 0.67586249 -0.25364268
-0.5784837 0.74928099 -0.25364268
-0.56796575 0.75728482 -0.25364268
-0.56279796 0.76113325 -0.25364268
0.22483473 0.91951877 -0.25364268
0.7693119 0.60105234 -0.085412629
0.820436 0.52914035 0.085412629
0.90486306 0.36650726 -0.085412629
0.91710275 0.33470473 -0.085412629
-0.94702786 0.16903244 -0.18699281
-0.92771542 0.22615264 -0.22045204
-0.9336285 0.25541183 -0.15330577
-0.63890934 0.69846994 -0.25364268
-0.53616428 0.78012389 -0.25364268
-0.77517194 0.59674728 0.085586943
-0.95009148 0.16291416 -0.18737443
-0.9543947 0.19781937 -0.1196757
-0.94836169 0.20331113 -0.15361865
-0.92608231 0.28826523 -0.15361865
-0.92608231 0.28826523 -0.15361865
-0.92990756 0.30376104 -0.085586943
-0.62541533 0.71314949 -0.25416031
-0.59022033 0.74254054 -0.25416031
-0.56394649 0.76268661 -0.25416031
-0.95951617 0.17126144 -0.1196757
-0.9488368 0.25246593 -0.017138263
-0.94521934 0.26568916 -0.017138263
-0.92908072 0.31755203 -0.017138263
-0.78122389 0.59276634 -0.051393908
0.61101288 0.74810886 -0.18775605
0.76581758 0.61573315 0.051498581
-0.92989403 0.23357324 -0.22135183
-0.94897991 0.25961155 -0.017173167
-0.92759728 0.32429481 0.051498581
0.61622077 0.74382502 -0.18775605
0.91606396 0.34889513 -0.085761249
-0.96500468 0.17224108 -0.085761249
-0.93562597 0.26299259 -0.15393151
-0.93191099 0.2758677 -0.15393151
-0.91934484 0.27214783 -0.22135183
-0.93191099 0.2758677 -0.15393151
-0.93618631 0.29859513 -0.051498581
-0.93618631 0.29859513 -0.051498581
-0.93407893 0.30512363 -0.051498581
-0.93192601 0.31163722 0.051498581
-0.69309062 0.65040028 -0.25467795
-0.61677682 0.72317457 -0.25467795
-0.61184007 0.72735608 -0.25467795
-0.53835273 0.78330803 -0.25467795
-0.93649447 0.27722451 -0.11991943
-0.9299624 0.2823669 -0.15393151
-0.9382481 0.29205209 0.051498581
-0.93306285 0.31201738 0.017173167
-0.6066196 0.73171568 -0.25467795
-0.60162497 0.7358278 -0.25467795
-0.60162497 0.7358278 -0.25467795
-0.59142244 0.74405289 -0.25467795
-0.57557845 0.75637597 -0.25467795
-0.57557845 0.75637597 -0.25467795
-0.54896611 0.7759068 -0.25467795
-0.95961201 0.19209777 -0.12016317
-0.93786281 0.2919322 -0.085935563
-0.93027574 0.30388129 -0.12016317
-0.92813158 0.31036839 -0.12016317
-0.92605275 0.31651711 -0.12016317
-0.9282645 0.3320013 -0.017208073
0.2391063 0.92189986 -0.25519559
0.62434161 0.75362748 -0.12016317
0.63182545 0.74108112 -0.15424438
0.76118767 0.6208095 -0.085935563
0.76118767 0.6208095 -0.085935563
0.91935515 0.32123321 -0.15424438
-0.95396149 0.16357777 -0.18813767
-0.95622665 0.18448642 -0.15424438
-0.94530112 0.2798315 -0.017208073
-0.93369538 0.30499834 -0.085935563
-0.9317286 0.31845707 -0.051603254
-0.92945689 0.3176806 -0.085935563
-0.7853629 0.59590685 -0.017208073
-0.49974701 0.84840202 -0.051603254
0.75839984 0.61853582 -0.12016317
0.75430906 0.60648006 -0.18813767
-0.95161545 0.17671511 0.18813767
-0.94130194 0.29300269 0.017208073
-0.9306165 0.32535034 -0.017208073
-0.78023183 0.6006425 -0.051603254
-0.69004714 0.65643442 -0.25519559
0.22621126 0.92514849 -0.25519559
-0.95816624 0.18486063 -0.15455726
-0.94113857 0.30017465 0.017242977
-0.93547374 0.25591666 -0.18851928
-0.92496717 0.26680318 -0.22225164
-0.92308199 0.27325413 -0.22225164
-0.9337427 0.28351474 -0.15455726
-0.92602283 0.28824672 -0.18851928
-0.93902004 0.30673769 0.017242977
-0.93787599 0.30636397 -0.051707923
-0.76435459 0.59696442 -0.18851928
0.76552856 0.62434983 0.017242977
0.82348311 0.53907758 0.086109877
-0.97248048 0.1735754 -0.017242977
-0.9547587 0.17041229 0.18851928
-0.92676181 0.260501 -0.22225164
-0.93761021 0.27045 -0.15455726
-0.92115188 0.27969173 -0.22225164
-0.92969322 0.29652417 -0.15455726
-0.93685579 0.31328574 0.017242977
-0.93134218 0.31832498 -0.086109877
-0.77705187 0.59819448 -0.12040691
0.93178523 0.2062306 -0.25571322
-0.92855787 0.25402468 -0.22225164
-0.94568527 0.27277923 -0.086109877
0.23360832 0.9272933 -0.25623086
0.62157655 0.76104271 -0.12065065
0.62904787 0.74860805 -0.15487012
0.64458758 0.73527008 -0.15487012
0.92533946 0.33059084 -0.12065065
-0.96610403 0.17940564 -0.12065065
-0.96837467 0.18683016 -0.086284183
-0.93555433 0.26297247 -0.1889009
-0.94596082 0.2658976 -0.12065065
-0.94797963 0.28062439 -0.051812597
-0.94599742 0.28723565 -0.051812597
-0.94599742 0.28723565 -0.051812597
-0.94396913 0.2938329 -0.051812597
-0.93615699 0.2985858 0.12065065
-0.93615699 0.2985858 -0.12065065
0.25297686 0.92219764 -0.25623086
0.64775789 0.73888642 -0.12065065
0.6580112 0.7297703 -0.12065065
0.76280206 0.63082051 -0.017277882
0.83982056 0.51706523 0.086284183
-0.9337427 0.26933444 -0.1889009
-0.94759959 0.2733314 -0.086284183
-0.93183964 0.27584657 -0.1889009
-0.93089479 0.33294204 0.051812597
-0.77063102 0.60186636 -0.15487012
0.63214177 0.75229001 -0.12065065
0.63214177 0.75229001 -0.12065065
0.91827422 0.34973693 -0.12065065
-0.95895481 0.15755048 0.1889009
-0.9670468 0.19358608 -0.086284183
0.75928038 0.61925399 -0.15518299
0.75928038 0.61925399 -0.15518299
0.84151715 0.5181098 0.086458497
-0.93562901 0.26987854 -0.18928252
-0.94989473 0.28119132 0.05191727
-0.93950266 0.31417087 -0.05191727
0.82301825 0.54701906 0.086458497
0.83048213 0.53561962 0.086458497
0.91700864 0.32761455 -0.18928252
-0.92087013 0.29371008 -0.22315145
-0.94494885 0.30138993 0.017312787
-0.94282174 0.30797952 0.017312787
-0.93854183 0.32078576 0.017312787
-0.93513876 0.32693136 0.05191727
-0.93391317 0.3340216 -0.017312787
0.25348791 0.92406064 -0.2567485
0.27246374 0.91864449 -0.2567485
0.74676043 0.60041076 -0.2567485
0.90456945 0.31606695 -0.2567485
-0.97044235 0.16640376 -0.12089439
-0.95862412 0.17110223 0.18928252
-0.96545148 0.19326672 -0.12089439
-0.96196651 0.24162929 -0.017312787
-0.95849907 0.25503689 -0.017312787
-0.94140619 0.27154493 -0.15518299
-0.94213414 0.28606263 -0.12089439
-0.92488122 0.2808241 -0.22315145
-0.9435699 0.29370865 -0.086458497
-0.92564046 0.30236712 -0.18928252
0.66066986 0.73271883 -0.12113813
0.75614232 0.61669463 -0.18966414
-0.97481161 0.17399149 -0.086632811
-0.93993944 0.2997922 -0.12113813
-0.93910152 0.31403673 -0.086632811
-0.93910152 0.31403673 -0.086632811
0.91202682 0.39183766 -0.052021939
-0.96282935 0.15818705 0.18966414
-0.94634044 0.23770428 -0.18966414
-0.96219218 0.24883983 -0.017347692
-0.94948918 0.28107125 -0.086632811
-0.94948918 0.28107125 -0.086632811
-0.93364829 0.28348607 -0.18966414
-0.94750381 0.28769305 -0.086632811
-0.94778311 0.2950201 -0.052021939
-0.93108267 0.31135523 -0.15549585
-0.93566209 0.31288657 0.12113813
-0.93579608 0.33469501 0.017347692
0.24752867 0.92767435 -0.25726613
0.60734975 0.74362385 -0.25726613
0.76455319 0.62355435 -0.12113813
-0.98070097 0.16112325 -0.017347692
-0.97357321 0.18079266 -0.086632811
-0.94875151 0.25244325 -0.15549585
-0.9556042 0.26860821 -0.052021939
-0.95297092 0.28210193 0.017347692
-0.94893926 0.29538 0.017347692
-0.93782365 0.30634686 0.12113813
-0.93816715 0.32799008 0.017347692
-0.96648788 0.1725058 -0.15549585
-0.95180988 0.28175825 -0.052021939
0.24802673 0.92954087 -0.25778377
0.26711655 0.92423606 -0.25778377
0.83756489 0.53194505 0.086807117
-0.97290766 0.19475932 -0.086807117
-0.95533615 0.2541953 -0.12138186
-0.95488834 0.28266954 -0.017382598
-0.93662024 0.32744929 -0.086807117
-0.94005477 0.32865003 0.017382598
-0.7606582 0.60267413 -0.22405125
0.7664901 0.63387042 0.052126613
0.77172714 0.62940532 0.017382598
0.85209113 0.5083515 0.086807117
-0.96843249 0.1728529 -0.15580873
-0.94743186 0.21021408 -0.22405125
-0.9641282 0.2493405 -0.017382598
-0.95066047 0.2529512 -0.15580873
-0.95752692 0.26914868 0.052126613
-0.94390488 0.29381293 0.12138186
-0.9411782 0.32168686 -0.052126613
-0.93653655 0.33495986 0.052126613
-0.93531483 0.34190646 -0.017382598
0.26098096 0.9259873 -0.25778377
0.26098096 0.9259873 -0.25778377
0.27356237 0.92234874 -0.25778377
-0.95240325 0.24630822 -0.15580873
-0.95240325 0.24630822 -0.15580873
-0.93722111 0.29892519 -0.15580873
-0.9351114 0.30546087 -0.15580873
-0.94329101 0.3154377 -0.052126613
-0.9329561 0.31198168 -0.15580873
-0.78334379 0.60303813 -0.12138186
0.62884718 0.75906605 -0.1561216
0.63413107 0.75465739 -0.1561216
-0.97391093 0.18085538 -0.1216256
-0.94672376 0.25190371 -0.19042738
-0.94672376 0.25190371 -0.19042738
-0.95759171 0.27621362 -0.052231286
-0.95759171 0.27621362 0.052231286
-0.92909271 0.31068978 0.19042738
0.62659937 0.76719254 -0.1216256
0.76357639 0.64048964 -0.052231286
0.75784487 0.60932291 -0.22450115
-0.98575282 0.15489361 -0.017417502
-0.97619992 0.18833989 -0.086981431
-0.95077676 0.26010308 -0.1561216
-0.95711035 0.26903158 -0.086981431
-0.94783252 0.28779286 -0.1216256
-0.92848021 0.28901163 -0.22450115
-0.94580024 0.2944029 -0.1216256
-0.93334007 0.29768732 -0.19042738
-0.94159758 0.30757964 0.1216256
-0.94159758 0.30757964 -0.1216256
-0.93942732 0.31414568 -0.1216256
-0.92222399 0.30839285 -0.22450115
-0.93942732 0.31414568 0.1216256
-0.93605113 0.34217563 0.052231286
-0.93719298 0.34259301 -0.017417502
-0.97267294 0.1598043 -0.1561216
-0.98232341 0.17533225 -0.017417502
-0.97749102 0.18152019 -0.086981431
-0.9797796 0.18903053 -0.017417502
-0.93936968 0.27807564 -0.19042738
-0.947191 0.30210507 -0.086981431
-0.94505882 0.30871028 0.086981431
-0.93698913 0.30607426 -0.1561216
-0.93732321 0.32036924 0.1216256
-0.93732321 0.32036924 0.1216256
0.83348495 0.54562503 0.087155744
-0.98546499 0.16897973 -0.017452406
-0.98304147 0.18255092 -0.017452406
-0.93620157 0.2700437 -0.22495106
-0.95755517 0.28345898 0.052335955
-0.95671856 0.29049096 0.017452406
-0.92829651 0.29607871 -0.22495106
-0.93180263 0.36254546 -0.017452406
0.28772491 0.9220776 -0.25881904
0.63150263 0.75152934 -0.190809
0.77352887 0.62193322 -0.12186934
-0.94977814 0.21752822 -0.22495106
-0.95793128 0.24061571 -0.15643446
-0.96137244 0.27022961 -0.052335955
-0.9508394 0.2672689 -0.15643446
-0.95951074 0.27676713 0.052335955
-0.95872325 0.28380477 0.017452406
-0.95172203 0.28173223 0.12186934
-0.95322317 0.28942961 -0.087155744
-0.94908917 0.30271047 -0.087155744
-0.92620689 0.30255216 -0.22495106
-0.93095464 0.31131241 -0.190809
-0.94268018 0.32956788 -0.052335955
-0.78938079 0.60768563 -0.087155744
-0.94160795 0.25054249 -0.22495106
-0.95226073 0.24627137 -0.19119062
-0.93914461 0.29233119 -0.19119062
-0.93914461 0.29233119 0.19119062
-0.94800293 0.32401949 0.017487312
0.63447291 0.76585674 -0.12211308
0.64523619 0.75681084 -0.12211308
0.82351923 0.5640865 0.087330051
0.82743716 0.55832356 0.087330051
0.82743716 0.55832356 0.087330051
0.8313148 0.55253339 0.087330051
0.85363299 0.5173859 0.087330051
0.85722423 0.51141381 0.087330051
-0.98500758 0.18291603 -0.017487312
-0.98370659 0.18978816 -0.017487312
-0.95167768 0.21796329 -0.22540095
-0.96623594 0.23554294 -0.12211308
-0.96456802 0.24228273 -0.12211308
-0.96456802 0.24228273 -0.12211308
-0.95928252 0.26242998 -0.12211308
-0.94872946 0.259543 -0.19119062
-0.95742702 0.2691206 -0.12211308
-0.94116259 0.28576764 -0.19119062
-0.95163143 0.28894633 0.12211308
-0.95308167 0.29666942 0.087330051
-0.94959104 0.29558286 -0.12211308
-0.95098734 0.30331591 0.087330051
-0.93708092 0.29888046 -0.19119062
-0.94750434 0.30220503 0.12211308
-0.92592025 0.3096289 -0.22540095
-0.94453937 0.32283565 0.087330051
-0.93185562 0.33328569 -0.15674734
-0.78420568 0.60370165 -0.15674734
0.55803764 0.80111951 -0.22540095
0.62793082 0.73651302 -0.25933668
-0.96500236 0.22829475 -0.15706021
-0.95748031 0.27618149 -0.12235682
0.62874556 0.75894344 -0.19157223
0.75810301 0.61829376 -0.22585087
0.75810301 0.61829376 -0.22585087
0.84792268 0.53045839 0.087504365
0.93264055 0.31858698 -0.19157223
-0.98694807 0.16214961 -0.087504365
-0.98579198 0.16903581 -0.087504365
-0.98577118 0.18305783 -0.052545302
-0.96891189 0.25780752 0.052545302
-0.96708846 0.26456547 -0.052545302
-0.96334881 0.2778742 -0.052545302
-0.96054542 0.29165292 0.017522216
-0.93406224 0.29074916 -0.22585087
-0.93683773 0.30602479 -0.19157223
-0.94854921 0.31719607 0.087504365
-0.93834329 0.3207179 -0.15706021
-0.93033695 0.32525259 0.19157223
-0.94521052 0.33806217 0.017522216
-0.79970014 0.60678548 0.017522216
-0.79970014 0.60678548 0.017522216
0.28240576 0.92776006 -0.25985432
0.61822176 0.76754022 -0.19157223
0.54898065 0.81206167 -0.22630076
0.62634367 0.77762377 -0.12260056
0.62634367 0.77762377 -0.12260056
-0.97932142 0.16792628 -0.15737307
-0.99137777 0.16999361 -0.01755712
-0.97932142 0.16792628 -0.15737307
-0.95388639 0.22566499 -0.22630076
-0.9666968 0.2500048 -0.12260056
-0.97262174 0.25153708 -0.052649971
-0.94547486 0.25865266 -0.22630076
-0.97019696 0.26541585 -0.01755712
-0.95743233 0.28342262 -0.12260056
-0.94689965 0.2803047 0.19195385
-0.95688641 0.29785374 0.087678678
-0.9483363 0.33154529 -0.052649971
-0.94255924 0.32952562 0.12260056
-0.94355458 0.34491852 0.052649971
-0.77828008 0.6078403 -0.19195385
0.55477756 0.8081125 -0.22630076
0.63388801 0.76515079 -0.15737307
0.63043749 0.7394532 -0.26037195
0.7838946 0.63026744 0.01755712
0.84961176 0.53151512 0.087678678
-0.96853685 0.22182454 -0.15737307
-0.93654037 0.31318027 0.19195385
-0.9275344 0.31702352 -0.22630076
-0.94602406 0.33073694 -0.087678678
-0.94017714 0.33626193 0.12260056
0.27033484 0.9353714 -0.26088959
0.29002669 0.92945421 -0.26088959
0.54437822 0.81749648 -0.22675066
0.55007207 0.81367612 -0.22675066
0.75032103 0.62049896 -0.26088959
0.76679224 0.62538046 -0.19233547
-0.96803671 0.16599126 0.22675066
-0.96502668 0.26400143 -0.1228443
-0.9363004 0.32001966 -0.19233547
-0.9363004 0.32001966 -0.19233547
-0.93404347 0.32654843 0.19233547
-0.94426793 0.35229614 -0.017592026
-0.78850162 0.61582339 -0.1228443
0.86583924 0.50859445 0.087852992
0.94562715 0.33783892 -0.087852992
-0.99088013 0.16279563 -0.087852992
-0.98971945 0.16970925 -0.087852992
-0.97524667 0.16722757 0.19233547
-0.9921385 0.17012404 -0.052754644
-0.95578283 0.22611363 -0.22675066
-0.95796293 0.24774605 -0.19233547
-0.96857411 0.26497188 -0.087852992
-0.95256442 0.26775378 -0.19233547
-0.94269216 0.30067018 0.19233547
-0.95452833 0.31180358 0.087852992
-0.94057012 0.30724403 0.19233547
-0.94782013 0.33899552 -0.052754644
-0.94063807 0.35844249 0.052754644
-0.9455092 0.33816898 -0.087852992
0.56249303 0.80751562 -0.22720057
0.83009422 0.56859016 0.088027298
-0.97942591 0.15389945 0.19271709
-0.98687506 0.17614466 -0.12308804
-0.99035245 0.19107036 -0.052859318
-0.98019993 0.21013665 -0.12308804
-0.97648901 0.25253725 0.052859318
-0.9687646 0.25776833 -0.12308804
-0.96694142 0.26452523 0.12308804
-0.96861869 0.27226645 -0.088027298
-0.96320236 0.27783197 0.12308804
-0.94395089 0.32263455 -0.15799882
-0.93589669 0.32719633 -0.19271709
-0.946307 0.33083585 0.12308804
-0.94970071 0.33966812 -0.052859318
-0.92662984 0.33141664 -0.22720057
-0.94268471 0.35170546 -0.088027298
-0.79860443 0.60595405 0.12308804
0.82610452 0.57437146 0.088027298
-0.95208061 0.3254132 0.088027298
-0.94167554 0.32921666 -0.15799882
0.31065601 0.92683989 -0.26192486
0.31065601 0.92683989 -0.26192486
0.62839943 0.76939654 -0.19309871
0.6500268 0.74147451 -0.22765046
0.65518737 0.73691845 -0.22765046
0.78125954 0.63717973 0.088201612
0.76847595 0.61787051 -0.22765046
0.85101974 0.54049039 0.088201612
0.86927509 0.51061267 0.088201612
-0.98716682 0.20461211 -0.088201612
-0.97110277 0.23672934 -0.15831168
-0.97587901 0.23789367 -0.12333178
-0.97110277 0.23672934 -0.15831168
-0.96466184 0.29290277 0.088201612
-0.94643301 0.30186331 0.19309871
-0.96047825 0.30634302 0.088201612
-0.95610738 0.31972352 0.088201612
0.29768503 0.93108702 -0.26192486
0.29768503 0.93108702 -0.26192486
0.5580864 0.81293225 -0.22765046
0.65094298 0.77466464 -0.017661836
0.77240008 0.64789093 -0.088201612
0.77405894 0.64012969 -0.12333178
0.77897996 0.62631595 -0.15831168
0.86789542 0.51778018 0.052963987
-0.98136538 0.1542042 0.19309871
-0.99116874 0.16284303 -0.12333178
-0.99846011 0.16404097 -0.017661836
-0.99488986 0.1775752 -0.052963987
-0.99362594 0.18451646 -0.052963987
-0.9766323 0.25986177 0.052963987
-0.9766323 0.25986177 -0.052963987
-0.97479433 0.26667356 0.052963987
-0.97479433 0.26667356 -0.052963987
-0.97241765 0.26602337 -0.088201612
-0.97220939 0.28043002 0.017661836
-0.94354022 0.32986856 -0.15831168
-0.94578451 0.33826748 -0.12333178
-0.95033997 0.34739894 0.017661836
-0.93770337 0.38019004 -0.017661836
-0.94398797 0.31567076 -0.19348033
0.54761857 0.82236254 -0.22810037
0.86385614 0.5235821 0.088375926
-1.0003362 0.15718514 0.05306866
-0.99196422 0.17009416 -0.12357552
-0.96504611 0.28567648 0.12357552
-0.95442969 0.28253376 0.19348033
-0.9583149 0.29097563 0.15862454
-0.93265682 0.32606363 -0.22810037
-0.9302997 0.33272919 -0.22810037
-0.93722856 0.33520737 -0.19348033
-0.94301558 0.33727714 -0.15862454
-0.95221812 0.34808549 0.01769674
-0.94225842 0.37420839 -0.01769674
-0.78872728 0.6071825 -0.19348033
0.77109206 0.64679372 -0.12357552
0.77109206 0.64679372 -0.12357552
0.78280354 0.638439 0.088375926
-0.99804407 0.17113669 -0.05306866
-0.99427468 0.19182709 -0.05306866
-0.97438425 0.25199291 0.12357552
-0.96889323 0.27234361 0.12357552
-0.96302825 0.29240677 0.12357552
-0.95105797 0.34766141 -0.05306866
-0.9487313 0.35396138 0.05306866
-0.7935974 0.61093163 -0.15862454
0.28578112 0.93884879 -0.26296014
-0.98694354 0.24059092 -0.017731644
-0.9414565 0.3291401 -0.19386195
-0.93670946 0.34241629 -0.19386195
-0.94925994 0.36172798 -0.017731644
0.30538023 0.93265796 -0.26296014
0.30538023 0.93265796 -0.26296014
0.64738327 0.74894303 -0.22855027
0.83101207 0.57778352 0.088550232
0.88202119 0.50146508 0.05317333
0.95672637 0.21859244 -0.26296014
-0.99986547 0.15711117 -0.088550232
-0.99882227 0.17827708 -0.05317333
-0.9732582 0.24446556 -0.15893741
-0.98228997 0.25403747 -0.05317333
-0.97451961 0.25929964 0.12381925
-0.97864729 0.26772761 0.05317333
-0.97675437 0.27455327 0.05317333
-0.96892434 0.27948245 -0.12381925
-0.96418214 0.27811459 0.15893741
-0.95431256 0.28976041 0.19386195
-0.9628588 0.29971278 0.12381925
-0.95388871 0.31159464 0.15893741
-0.948035 0.30968246 0.19386195
-0.94102621 0.30739298 -0.22855027
-0.94955856 0.32455119 0.15893741
-0.95542789 0.33402458 0.088550232
-0.94712883 0.34622508 -0.12381925
-0.94018757 0.35077378 -0.15893741
-0.95176214 0.35509214 0.017731644
-0.94810343 0.36128727 0.05317333
-0.8033486 0.60955381 -0.12381925
-1.0063877 0.14376783 -0.053278003
-0.98491037 0.2255746 -0.12406299
-0.98491037 0.2255746 -0.12406299
-0.95139194 0.34027302 -0.12406299
-0.95139194 0.34027302 0.12406299
-0.93855339 0.34309033 -0.19424355
-0.94418281 0.35979328 -0.12406299
-0.94482291 0.37522683 0.053278003
0.31883675 0.93018633 -0.2634778
0.57247537 0.81003386 -0.22900017
0.63258684 0.7528196 -0.2634778
0.82858604 0.58471972 0.088724546
-0.98717934 0.24796231 -0.01776655
-0.98242265 0.26140246 -0.053278003
-0.95142776 0.32519007 0.15925029
-0.94558913 0.32319447 0.19424355
-0.95380253 0.33345634 -0.12406299
-0.95488924 0.34152383 -0.088724546
-0.94899327 0.34690663 0.12406299
-0.95363569 0.35579115 -0.01776655
-0.9511286 0.36244005 -0.01776655
-0.94063783 0.38885581 -0.01776655
-0.92948598 0.41480613 -0.01776655
-0.98070967 0.16112469 0.22945008
-0.97839493 0.17463106 0.22945008
-0.98038089 0.23193291 -0.15956315
0.63937062 0.76089281 -0.22945008
0.63937062 0.76089281 -0.22945008
0.66553593 0.73811561 -0.22945008
0.72544557 0.69010854 -0.19462517
0.78881305 0.59032232 -0.26399544
0.87475628 0.52187335 0.053382676
0.88186854 0.50976288 0.053382676
-1.0085635 0.15127075 -0.017801454
-1.0062554 0.15811522 -0.053382676
-0.99878645 0.19993982 -0.053382676
-0.98520279 0.23307364 -0.12430673
-0.98014987 0.25348398 -0.12430673
-0.98375285 0.25441578 -0.08889886
-0.98014987 0.25348398 0.12430673
-0.98195273 0.26127741 -0.08889886
-0.98179603 0.27597043 0.017801454
-0.95806968 0.29090118 0.19462517
-0.96191853 0.29942009 0.15956315
-0.95918941 0.33533964 0.08889886
-0.95435297 0.3488659 -0.08889886
-0.95435297 0.3488659 -0.08889886
-0.95550925 0.35649014 0.017801454
-0.9380967 0.34999371 -0.19462517
-0.95434511 0.35605583 0.053382676
-0.93563044 0.35653427 -0.19462517
-0.95043874 0.3697964 -0.017801454
-0.98031336 0.17497347 0.22989997
-0.98985076 0.24863333 0.053487346
-0.97623533 0.28898877 0.089073166
-0.97419405 0.29579708 0.089073166
-0.94001502 0.32863614 -0.22989997
-0.93527526 0.341892 -0.22989997
-0.9538849 0.35588413 -0.089073166
0.63077474 0.79441452 -0.12455047
0.66869551 0.76276964 -0.12455047
0.76500678 0.62392426 -0.26451308
-1.0093099 0.15138268 0.053487346
-1.0070978 0.16546009 0.053487346
-1.0009629 0.16445217 -0.12455047
-0.98995131 0.16264303 -0.19500679
-1.0046684 0.18656705 0.01783636
-0.98552209 0.24024439 0.12455047
-0.98562753 0.2696372 0.01783636
-0.98181617 0.28320107 0.01783636
-0.96392429 0.2780402 0.19500679
-0.96789944 0.28652114 0.15987602
-0.95789003 0.29816613 0.19500679
-0.94930458 0.32446438 0.19500679
-0.95755029 0.33476657 -0.12455047
-0.94462287 0.337852 -0.19500679
-0.81304562 0.61691159 0.053487346
0.57584947 0.81480813 -0.23034988
0.49560019 0.85598785 -0.26503071
0.68478107 0.7594595 0.053592019
0.78155893 0.65557343 -0.08924748
0.76650381 0.62514526 -0.26503071
0.83346963 0.588166 0.08924748
0.95340878 0.31845111 -0.19538841
-1.0102015 0.15873529 0.053592019
-1.0040476 0.15776831 -0.12479421
-0.9845556 0.16175655 0.23034988
-1.0039264 0.20096874 -0.017871264
-0.9890663 0.23398764 -0.12479421
-0.99350286 0.2421899 -0.053592019
-0.99178785 0.24911989 -0.053592019
-0.99178785 0.24911989 0.053592019
-0.96955985 0.26524156 0.19538841
-0.98014343 0.28271854 0.08924748
-0.96569073 0.30059427 0.1601889
-0.96356869 0.3073287 0.1601889
-0.94413042 0.32269591 0.23034988
-0.94413042 0.32269591 -0.23034988
-0.95808762 0.35745209 -0.053592019
-0.93481302 0.34876862 -0.23034988
-0.94759059 0.3535358 -0.1601889
-0.95808762 0.35745209 -0.053592019
-0.95556879 0.36413205 -0.053592019
-0.95067984 0.36989018 -0.08924748
-0.95039159 0.3774384 -0.053592019
-0.94882238 0.38469821 -0.017871264
-0.94349748 0.39757904 -0.017871264
0.54749912 0.83412212 -0.23034988
0.65248078 0.75484025 -0.23034988
0.66295642 0.74565661 -0.23034988
0.77515751 0.61438227 -0.26503071
-0.98340237 0.16862604 0.23034988
-1.006687 0.17968084 0.053592019
-0.95057565 0.3031846 0.23034988
-0.95176977 0.34792161 -0.16050176
-0.95176977 0.34792161 -0.16050176
0.56090343 0.81703573 -0.26554835
0.5826596 0.81235164 -0.23079978
0.69667608 0.75128895 0.053696692
0.71199995 0.73678267 0.053696692
0.77039611 0.63710064 -0.23079978
0.90221161 0.48823106 0.017906168
-1.0110871 0.17337321 0.017906168
-0.97849518 0.23853141 0.19577003
-0.99544328 0.24266292 0.053696692
-0.97849518 0.23853141 0.19577003
-0.99544328 0.24266292 -0.053696692
-0.9828375 0.24687171 0.16050176
-0.9768061 0.24535674 0.19577003
-0.98772889 0.26281434 -0.089421794
-0.98587006 0.26970354 0.089421794
-0.97846097 0.28223327 0.12503795
-0.95658076 0.29044911 0.23079978
-0.96545064 0.30792895 0.16050176
-0.94113415 0.35863155 -0.19577003
-0.95486474 0.37151846 0.053696692
-0.95340937 0.37863687 -0.017906168
-0.72267377 0.67816126 -0.26554835
0.64891815 0.79451913 -0.017906168
0.66555125 0.78063881 -0.017906168
-0.99022055 0.18388408 0.19577003
-0.97126126 0.23676796 0.23079978
-0.9894852 0.27069253 0.017906168
-0.96231312 0.35177574 -0.053696692
-0.94694531 0.36084595 -0.16050176
-0.94253623 0.40494552 -0.017906168
0.32835501 0.93711036 -0.26606598
-1.0116749 0.15896681 -0.0895961
-1.0118521 0.18060274 0.017941074
-0.99510419 0.25735143 0.017941074
-0.98227042 0.27610376 0.12528169
-0.96047169 0.36600035 0.017941074
-0.95696253 0.36466315 -0.0895961
0.22927609 0.96613944 -0.26606598
0.51992935 0.85614312 -0.23124969
0.65018308 0.79606789 -0.017941074
0.63901591 0.77134055 -0.23124969
0.64985627 0.76222986 -0.23124969
0.6713382 0.77665591 0.053801361
0.76520836 0.63281047 -0.26606598
-1.0164738 0.15245718 0.017941074
-1.0142461 0.1666345 0.017941074
-1.0092319 0.1947128 0.017941074
-0.99611282 0.2210153 -0.12528169
-0.99292988 0.23490167 0.12528169
-0.99901557 0.23634139 -0.053801361
-0.99323446 0.24948324 0.0895961
-0.99323446 0.24948324 -0.0895961
-0.97697014 0.25266165 0.19615164
-0.99146855 0.25641119 -0.0895961
-0.98949641 0.27813488 0.017941074
-0.97146451 0.27306637 0.19615164
-0.97154605 0.29499304 0.16081463
-0.95016861 0.33983546 0.19615164
-0.95362508 0.34859982 0.16081463
-0.95789313 0.37269676 0.017941074
-0.81582493 0.6190204 0.0895961
-1.0130104 0.16643149 -0.053801361
-1.0118238 0.17349952 0.053801361
-1.0038511 0.22991259 -0.017975979
0.56309021 0.82022107 -0.26658362
0.64004362 0.76169372 -0.26658362
0.7043789 0.74956286 0.053906035
-1.0184513 0.15275379 -0.017975979
-1.0173601 0.15986013 -0.017975979
-1.0162193 0.1669587 0.017975979
-1.0137923 0.17383707 0.053906035
-0.99851871 0.23622383 -0.089770414
-0.9806143 0.24631329 0.19653326
-0.99582547 0.25753796 0.053906035
-0.97936457 0.27528697 0.16112749
-0.96428764 0.27814502 0.23169959
-0.98387712 0.29125091 0.089770414
-0.95399308 0.31162873 0.23169959
-0.96703285 0.31588826 0.16112749
-0.96032256 0.3357358 0.16112749
-0.96370935 0.35228616 0.089770414
-0.96017981 0.3509959 -0.12552543
-0.95783079 0.35735628 0.12552543
-0.95783079 0.35735628 -0.12552543
-0.95783079 0.35735628 0.12552543
